# .PCD v0.7 - Point Cloud Data file format
VERSION 0.7
FIELDS x y z
SIZE 4 4 4
TYPE F F F
COUNT 1 1 1
WIDTH 1362
HEIGHT 1
VIEWPOINT 0 0 0 1 0 0 0
POINTS 1362
DATA ascii
0.16990909 0.16611207 -0.10247539
0.19845648 0.16611236 -0.097213641
0.0096311448 0.0019490719 -0.16693784
0.024208926 0.1661101 -0.12662499
0.10455994 0.16611093 -0.11181402
0.13049236 0.16611123 -0.10703392
0.15643093 0.16611141 -0.10225272
0.18237576 0.16611177 -0.097470343
0.18756546 0.16611183 -0.096513733
-0.006769998 0.001948297 -0.16665919
0.03408755 0.16610974 -0.1220995
0.059999295 0.1661101 -0.11732289
0.22338569 0.16611171 -0.087204099
0.027430654 0.0019481778 -0.15705325
0.02374756 0.15478796 -0.1238143
0.046554949 0.16610938 -0.1170973
0.072465815 0.1661098 -0.11232053
0.077648759 0.1661098 -0.11136502
0.20730235 0.16611111 -0.087462962
0.21508653 0.16611111 -0.08602792
0.0078676296 0.001947403 -0.15735964
0.087521479 0.1661095 -0.1068413
0.11343838 0.16610962 -0.10206313
0.13936141 0.16610992 -0.097283795
0.16788399 0.16611016 -0.09202522
0.19382006 0.16611046 -0.087243468
-0.0053647403 0.0019466877 -0.15650027
0.024862029 0.16610837 -0.11569147
0.099983476 0.16610909 -0.1018407
0.12589955 0.16610932 -0.097062349
0.15182173 0.16610962 -0.092282847
0.15959965 0.16610968 -0.090848789
0.18034337 0.1661098 -0.087024108
0.025659557 0.0019463897 -0.14748165
0.034734793 0.16610801 -0.11116973
0.055451632 0.16610819 -0.10734974
0.21873489 0.16610986 -0.077241808
0.0092661409 0.0019456148 -0.14720725
0.044605602 0.16610759 -0.10664891
0.067910954 0.16610783 -0.10235132
0.07827054 0.16610783 -0.10044099
0.20525539 0.1661092 -0.077024579
0.30322015 0.037996948 -0.085525975
-0.0071203969 0.0019449592 -0.1469329
0.023907226 0.1550647 -0.11001572
0.025998443 0.166107 -0.10738041
0.08813744 0.16610754 -0.095921025
0.10885834 0.16610777 -0.092099756
0.13476501 0.16610801 -0.087322161
0.16326956 0.16610831 -0.082065463
0.18918931 0.16610849 -0.077285483
0.027050015 0.0019446611 -0.13733582
0.098002277 0.16610724 -0.091401935
0.12131231 0.16610742 -0.08710292
0.14721815 0.16610771 -0.082325146
0.15499115 0.16610771 -0.080891579
0.17572178 0.16610801 -0.077068269
0.010663453 0.0019439459 -0.13706362
0.032793477 0.1661061 -0.10073006
0.05090946 0.16610628 -0.097388729
0.05867441 0.16610634 -0.095956549
0.079383589 0.16610646 -0.092136964
0.21408975 0.16610789 -0.067291677
0.22445874 0.16610801 -0.065379232
0.28615573 0.055614233 -0.075707942
-0.0057162587 0.0019432306 -0.13679157
0.068538025 0.16610599 -0.091439456
0.091834843 0.16610622 -0.087142289
0.20061947 0.16610724 -0.067076653
0.27457058 0.05284065 -0.075277716
0.28235188 0.064875543 -0.071521744
0.28851977 0.072356164 -0.068941563
0.30321401 0.039692581 -0.072529763
0.028439227 0.0019431114 -0.12719885
0.024062995 0.16610503 -0.096946493
0.10428388 0.16610587 -0.082148507
0.13017423 0.16610616 -0.07737264
0.1586608 0.1661064 -0.072117865
0.18456411 0.16610664 -0.067339584
0.26393712 0.056192935 -0.073493943
0.27030995 0.063887835 -0.070862517
0.27899909 0.072870374 -0.067560166
0.28890556 0.077775121 -0.064804807
0.01205952 0.0019423962 -0.12692888
0.018375218 0.0019423366 -0.12576379
0.024066534 0.15534079 -0.096247584
0.033925641 0.16610473 -0.092431337
0.062382735 0.16610497 -0.087181628
0.11673062 0.16610557 -0.07715565
0.14262019 0.16610581 -0.072379604
0.17110583 0.1661061 -0.067124635
0.22550827 0.16610658 -0.05708858
0.26038155 0.065438151 -0.069336459
0.26949373 0.073383689 -0.066181004
-0.0043133469 0.0019416213 -0.12665905
0.046372876 0.16610438 -0.08743988
0.074829057 0.16610467 -0.082189992
0.20945029 0.16610599 -0.057353687
0.25748494 0.072664559 -0.065492794
0.27989006 0.08362186 -0.059365716
0.28986007 0.087858617 -0.056755502
0.029827233 0.0019413233 -0.11707073
0.087273158 0.16610426 -0.077199265
0.095034942 0.16610444 -0.075767189
0.19598918 0.16610539 -0.057140853
0.26803651 0.082918167 -0.058681551
0.010298009 0.0019407272 -0.1173854
0.019767351 0.0019406676 -0.11563818
0.024715126 0.1661033 -0.086048037
0.1048893 0.16610402 -0.0712547
0.12558903 0.16610426 -0.067435265
0.13335243 0.16610432 -0.066002801
0.15405762 0.16610456 -0.062182378
0.17994462 0.16610479 -0.057405841
0.25865835 0.083417296 -0.057326604
0.27931124 0.090147197 -0.052340236
-0.0060671577 0.0019399524 -0.11711766
0.03457199 0.16610283 -0.081536621
0.057840921 0.16610312 -0.077242836
0.11474162 0.16610366 -0.066743106
0.1432032 0.16610396 -0.06149115
0.16649549 0.16610414 -0.057193097
0.22086363 0.16610473 -0.047160666
0.2675527 0.089458764 -0.051656563
0.28828043 0.095278025 -0.046836305
0.024225496 0.15561634 -0.082509801
0.044426791 0.16610247 -0.077026099
0.07028006 0.16610289 -0.07225512
0.096139468 0.16610301 -0.067483038
0.20481649 0.16610414 -0.047427792
0.011693 0.0019389391 -0.10726817
0.018003114 0.0019389987 -0.10610363
0.030624207 0.0019392371 -0.10377435
0.082716987 0.16610247 -0.067268327
0.13702714 0.16610295 -0.057245251
0.19136453 0.16610348 -0.047217157
0.25186962 0.090277612 -0.048472259
0.25970751 0.092464328 -0.046667565
0.27783614 0.09752202 -0.042493392
-0.0046653003 0.0019382238 -0.10700269
0.025366493 0.16610146 -0.075162292
0.10290834 0.16610217 -0.060850803
0.12359552 0.16610235 -0.057032678
0.14946009 0.16610259 -0.052258994
0.1753308 0.16610289 -0.047484171
0.26885921 0.097307563 -0.041242722
0.29010245 0.10104871 -0.036722694
0.029445115 0.001938045 -0.097423166
0.032633897 0.1661011 -0.071131498
0.053304642 0.16610122 -0.067316145
0.11275498 0.16610175 -0.056342978
0.16189075 0.16610229 -0.04727361
0.21622469 0.16610277 -0.037244823
0.22398885 0.16610295 -0.035811726
0.25192463 0.095445871 -0.041718278
0.013086812 0.0019372702 -0.097159773
0.045066506 0.16610074 -0.066147849
0.065736622 0.16610092 -0.062332366
0.073488906 0.16610092 -0.060901385
0.094164394 0.16610116 -0.057084907
0.20277554 0.16610223 -0.037036408
0.25896403 0.098158956 -0.037056636
-0.0064174077 0.0019364953 -0.097478494
0.003041001 0.0019366145 -0.095732465
0.024384104 0.15589124 -0.068802282
0.026500184 0.16610008 -0.06688717
0.083334342 0.16610056 -0.056395467
0.10659323 0.1661008 -0.052101824
0.13244236 0.1661011 -0.04733004
0.13761291 0.1661011 -0.046375539
0.18674551 0.16610157 -0.037305567
0.1945053 0.16610169 -0.035873089
0.26866782 0.10115021 -0.031881925
0.27925903 0.10300666 -0.029649559
0.28980264 0.10485488 -0.027427215
0.030830856 0.0019362569 -0.087321356
0.036346816 0.16609973 -0.062382285
0.11901987 0.16610044 -0.047119651
0.15003853 0.1661008 -0.041393165
0.17330831 0.16610104 -0.037097219
0.25176591 0.099475265 -0.032321174
0.014479377 0.0019357204 -0.087060168
0.048773874 0.16609937 -0.057401534
0.077184662 0.16609961 -0.052156147
0.15987673 0.16610044 -0.036888968
0.2115913 0.16610098 -0.027341079
0.21935064 0.16610104 -0.025908504
0.26147816 0.10245568 -0.027174432
-0.0050166668 0.001934886 -0.087380975
0.0044376776 0.0019349456 -0.085635334
0.061198659 0.16609895 -0.052421678
0.08960858 0.16609925 -0.047176074
0.19815136 0.16610032 -0.027134832
0.27140996 0.10457718 -0.022128258
0.27949768 0.10545444 -0.020513471
0.024568692 0.16609812 -0.056500334
0.10203028 0.16609895 -0.042196918
0.10977945 0.16609901 -0.040766027
0.12786309 0.16609919 -0.037426863
0.13819796 0.16609931 -0.035518508
0.1821321 0.16609979 -0.027405996
0.18988703 0.16609979 -0.025974046
0.2895765 0.10693467 -0.015545666
0.015870761 0.0019338727 -0.07696934
0.025323797 0.0019339323 -0.075223714
0.024542361 0.15616548 -0.055124935
0.03440965 0.16609782 -0.051999185
0.11961564 0.16609871 -0.036264706
0.14803255 0.16609895 -0.031017128
0.16870403 0.16609919 -0.027199853
0.22298548 0.16609967 -0.017176021
0.24843955 0.10286361 -0.020775419
-0.0036171395 0.0019330978 -0.077292249
0.0026829839 0.0019332767 -0.076128751
0.044248607 0.16609746 -0.047498953
0.072641551 0.1660977 -0.042255457
0.15786511 0.16609854 -0.026516687
0.20696361 0.16609895 -0.017449349
0.21471804 0.16609913 -0.016017284
0.25860706 0.10435307 -0.015793256
0.27747932 0.10639715 -0.012047108
0.059247024 0.16609716 -0.042046372
0.085058331 0.1660974 -0.037279326
0.13928199 0.16609788 -0.027264822
0.19353276 0.16609848 -0.017245319
0.28754574 0.1078732 -0.0071037859
0.014111401 0.0019322634 -0.067469016
0.023560148 0.001932323 -0.065723836
0.025219098 0.16609633 -0.045649435
0.097472876 0.16609704 -0.032304082
0.10263568 0.1660971 -0.031350505
0.12587141 0.1660974 -0.027058836
0.1516948 0.16609758 -0.022289243
0.18010759 0.16609794 -0.017041352
0.24917302 0.10410607 -0.011749789
-0.0022187997 0.0019315481 -0.067212284
0.03505424 0.16609597 -0.041152027
0.11504784 0.16609681 -0.026376124
0.16410539 0.16609722 -0.017314535
0.21835268 0.16609776 -0.0072943307
0.25932923 0.10555959 -0.0067967139
0.020645849 0.050602078 -0.054207165
0.024700277 0.15643924 -0.041477654
0.044887397 0.16609555 -0.036655512
0.068103947 0.16609585 -0.032366816
0.20492466 0.16609722 -0.0070924982
0.26987231 0.1057868 -0.0019220747
0.27808627 0.10625643 -0.00035159662
0.008195105 0.049587965 -0.05352262
0.019763056 0.059923947 -0.050252859
0.028400872 0.064389765 -0.048167732
0.026351076 0.16609502 -0.037400473
0.054718509 0.16609526 -0.032159928
0.080513582 0.16609555 -0.027394596
0.13470316 0.16609603 -0.017383702
0.18891984 0.16609657 -0.0073678158
0.28861234 0.1064831 0.004516013
-0.0042613074 0.045743823 -0.053132948
0.0016195746 0.053786099 -0.051194105
0.010345221 0.061142445 -0.048802394
0.092920996 0.1660952 -0.022423234
0.10324038 0.16609526 -0.020516727
0.1213017 0.16609544 -0.017179888
0.14710884 0.16609567 -0.012412004
0.15485212 0.16609585 -0.010981422
0.17550378 0.16609597 -0.007166028
0.24981809 0.10388869 -2.9478222e-05
-0.016864071 0.036858499 -0.05325995
-0.013780458 0.050174475 -0.051326934
0.015475585 0.067926943 -0.044104066
0.024078947 0.071644545 -0.042133886
0.033120126 0.16609418 -0.03079379
0.16467425 0.1660955 -0.0064874701
0.21372546 0.16609597 0.0025753751
0.22405483 0.16609603 0.00448386
0.25763544 0.1039598 0.0043268502
0.27683717 0.10505879 0.0079871044
-0.29368779 0.04207623 -0.10075234
-0.28468722 0.04207623 -0.099089265
-0.026264101 0.049160123 -0.050639618
-0.014284155 0.059492648 -0.04740544
-0.005466274 0.063453853 -0.045384858
0.0061691767 0.068445206 -0.042741906
0.042947628 0.16609383 -0.026301015
0.063571848 0.16609401 -0.022490162
0.20030658 0.16609532 0.0027750283
0.2874997 0.10494852 0.012846328
-0.27620211 0.042075872 -0.094402269
-0.26720151 0.04207629 -0.092739046
-0.038772315 0.048143804 -0.049950931
-0.02663077 0.058500767 -0.046721641
0.017082769 0.074795067 -0.037093226
0.024857894 0.15671235 -0.027860317
0.026999772 0.16609317 -0.026571732
0.052773088 0.16609335 -0.021809153
0.078552566 0.16609371 -0.01704542
0.10433814 0.16609395 -0.012280565
0.13270941 0.16609424 -0.0070379078
0.1868933 0.16609472 0.0029746033
0.24853623 0.10268563 0.0083306693
-0.28271717 0.042075217 -0.092488036
-0.25571904 0.042075694 -0.087498754
-0.051662862 0.039661825 -0.050010417
-0.048201185 0.049746931 -0.04844721
-0.039001346 0.057506859 -0.04603653
-0.015317532 0.068244159 -0.040676575
0.0021002572 0.07332927 -0.036992136
0.025030546 0.079351246 -0.032203224
0.036824688 0.16609281 -0.022080835
0.090952776 0.16609341 -0.012077961
0.11673754 0.16609353 -0.0073129497
0.12447417 0.16609371 -0.0058832169
0.14510787 0.16609389 -0.0020701103
0.1528465 0.16609395 -0.0006400086
0.17090549 0.16609412 0.0026972853
0.22510059 0.16609472 0.012712544
0.25931045 0.10231817 0.013194539
-0.27123544 0.042075038 -0.087248817
-0.24723876 0.042075276 -0.082813933
-0.060717665 0.048732281 -0.047757108
-0.04834152 0.058728755 -0.044590477
-0.027528919 0.067521036 -0.03997064
0.21168453 0.16609412 0.012910005
0.26752663 0.10125613 0.017526604
-0.29274216 0.042074263 -0.088107333
-0.073258802 0.047715604 -0.047065649
-0.060709931 0.057991147 -0.043879379
0.043586414 0.16609198 -0.01548269
0.061621942 0.1660921 -0.012149286
0.069352344 0.16609228 -0.010720517
0.19569416 0.16609347 0.012630558
0.28136 0.10025632 0.022909109
0.28975505 0.10035342 0.024468902
-0.27826506 0.042073727 -0.082316145
-0.25127792 0.042074144 -0.077327907
-0.24228086 0.042074263 -0.075664923
-0.086198688 0.04244411 -0.046785433
-0.082616277 0.049319685 -0.045567933
-0.07005471 0.058522582 -0.042502794
-0.046070673 0.068138182 -0.037293036
-0.022668898 0.074230731 -0.03247546
-0.016870663 0.075740218 -0.03128181
0.0032831477 0.079607069 -0.027244341
0.01472466 0.081555068 -0.024972197
0.025072224 0.16609132 -0.01623169
0.079170629 0.1660918 -0.0062323101
0.099786632 0.16609204 -0.0024217032
0.12814008 0.16609228 0.0028190576
0.15392232 0.16609257 0.0075845718
0.18228993 0.16609287 0.012827955
0.25038245 0.098734498 0.019973453
-0.2937685 0.042073131 -0.0820674
-0.26678857 0.042073548 -0.07708016
-0.23080656 0.042073488 -0.070428938
-0.095165618 0.048304558 -0.044875059
-0.082435966 0.057784796 -0.0417904
-0.061262071 0.066595912 -0.037196476
-0.034792177 0.07352221 -0.031769048
-0.0058719618 0.079320967 -0.025975693
0.022690415 0.084176898 -0.020321239
0.025015116 0.15698487 -0.014272861
0.03489149 0.16609097 -0.011744499
0.088986918 0.16609144 -0.0017450042
0.11217889 0.16609168 0.0025420189
0.11991064 0.1660918 0.0039712302
0.14053144 0.16609198 0.0077829659
0.16631286 0.16609228 0.012548646
0.22047386 0.16609281 0.022560267
0.25862029 0.097663999 0.02433086
-0.10773969 0.047287583 -0.044180792
-0.091761857 0.058316469 -0.040415671
-0.070538908 0.066701829 -0.035875428
0.044708811 0.16609061 -0.0072581954
0.070463747 0.16609085 -0.0024970993
0.20706695 0.16609216 0.022755584
0.22770122 0.16609246 0.026570078
0.26981351 0.096259832 0.02921712
0.28984353 0.095527351 0.032865986
-0.2738167 0.042072415 -0.072152808
-0.24684048 0.042072475 -0.067165613
-0.12046652 0.045268059 -0.043578845
-0.1104616 0.054080665 -0.041112509
-0.10107267 0.058847249 -0.039043192
-0.056146275 0.072860837 -0.029756848
-0.04446236 0.075312734 -0.027425233
-0.018429192 0.079725206 -0.022303615
0.0073481826 0.083477139 -0.017275516
0.013051602 0.084090352 -0.016178198
0.057099216 0.16609019 -0.002296757
0.19366558 0.16609156 0.022950804
0.27858257 0.093816102 0.03359196
-0.29231077 0.042071462 -0.072460249
-0.26534241 0.042071879 -0.067474157
-0.25635174 0.042071939 -0.065811917
-0.23537083 0.042072058 -0.061932843
-0.22637799 0.042072117 -0.060270194
-0.12960799 0.047876835 -0.041993473
-0.11967964 0.055565417 -0.039647471
-0.086100891 0.067570448 -0.032642309
-0.065356791 0.072909176 -0.028452616
-0.033354882 0.078462243 -0.022167291
-0.0074778795 0.082275867 -0.017129846
0.023887202 0.085646331 -0.01110715
0.025720906 0.16608948 -0.0054280199
0.079787947 0.16609001 0.0045682266
0.097816296 0.16609019 0.0079014208
0.12357628 0.16609043 0.012664089
0.15191931 0.16609073 0.017904326
0.17769216 0.16609102 0.022669369
0.25866628 0.092415035 0.032749448
-0.21491118 0.04207164 -0.055038456
-0.14221495 0.046859503 -0.041296441
-0.11038532 0.063689888 -0.034354437
-0.098352343 0.06685245 -0.031930979
-0.074578203 0.072758555 -0.027164344
0.03296059 0.16608912 -0.0014204346
0.089598455 0.16608971 0.0090518259
0.11020135 0.16608983 0.01286127
0.13596053 0.16609013 0.017624106
0.16430265 0.16609043 0.022864522
0.21843092 0.16609091 0.032872759
0.2703211 0.089843094 0.037679557
-0.15484676 0.045840085 -0.040598039
-0.14466049 0.053647757 -0.038252298
-0.13515799 0.057904363 -0.036243204
-0.12270701 0.062960982 -0.033641558
-0.089695998 0.07147634 -0.027033392
-0.066240877 0.075434148 -0.022462014
-0.054594636 0.077399492 -0.020192157
-0.014262938 0.0823313 -0.012442466
0.014274272 0.085395634 -0.0069842376
0.025171991 0.15725678 -0.00071515888
0.042772278 0.16608876 0.0030621402
0.068511657 0.16608894 0.0078216344
0.20245494 0.16609037 0.032589212
0.20760989 0.16609043 0.033542417
0.27915707 0.087362468 0.042111743
0.2878297 0.087041616 0.043696411
-0.28785935 0.042070031 -0.062307615
-0.28186932 0.042070031 -0.061199922
-0.26090187 0.042070389 -0.057322543
-0.2519148 0.042070329 -0.055660639
-0.23393877 0.042070329 -0.052336458
-0.22494967 0.042070568 -0.050674159
-0.16854095 0.039128006 -0.040406529
-0.15719268 0.052645445 -0.037556332
-0.046403676 0.079273701 -0.015588257
-0.029128663 0.081127465 -0.012290634
-0.0033558803 0.083893776 -0.0073708445
0.0052034464 0.084518135 -0.0057533197
0.02514033 0.085665464 -0.0020027347
0.026850134 0.1660881 0.0027853996
0.052581973 0.1660884 0.0075438172
0.080894001 0.1660887 0.012779364
0.18906268 0.16608977 0.032782257
0.22772048 0.16609019 0.039930984
-0.2704044 0.042069793 -0.055971507
-0.21648423 0.04207015 -0.045999762
-0.20749529 0.04207021 -0.044337396
-0.1732052 0.049051166 -0.037632842
-0.16637665 0.053874433 -0.036119122
-0.14739972 0.061500132 -0.032212976
-0.12310981 0.067769945 -0.02739479
-0.1170956 0.069300234 -0.026202951
0.093274176 0.16608834 0.017736219
0.12159275 0.16608858 0.022973327
0.14734329 0.16608888 0.027735511
0.15506963 0.166089 0.029164393
0.17567596 0.16608912 0.032975227
0.25662702 0.082975745 0.043622758
0.26255348 0.08238554 0.044688068
0.28038546 0.080609381 0.047893442
-0.18934935 0.045411766 -0.037711371
-0.15668659 0.061644614 -0.030884389
-0.13537356 0.067052662 -0.026680719
-0.10562471 0.072593093 -0.020910453
-0.085074902 0.075912356 -0.01694908
-0.076354921 0.076847255 -0.015291072
-0.058971714 0.078711033 -0.011985838
0.033604275 0.16608733 0.0093670934
0.10565216 0.16608793 0.022692187
0.13396978 0.16608822 0.02792947
0.16487017 0.16608858 0.03364443
0.21381381 0.16608912 0.042696446
0.2900939 0.076003551 0.052441791
-0.28341168 0.042068481 -0.05216353
-0.25646517 0.04206872 -0.047179494
-0.24748164 0.042068839 -0.045517903
-0.22951286 0.042068899 -0.0421944
-0.20255472 0.042069376 -0.037208203
-0.18815497 0.053668201 -0.034024779
-0.17852904 0.057497382 -0.032072682
-0.097216368 0.075004756 -0.01624814
-0.05081661 0.079977751 -0.0074430816
-0.042186975 0.080628157 -0.0058177859
-0.022106577 0.08178544 -0.0020518303
0.0036336491 0.08326906 0.0027755946
0.015045851 0.083926857 0.0049158819
0.043410137 0.16608691 0.013845962
0.063989207 0.16608715 0.017652269
0.20042439 0.16608846 0.04288733
0.22618611 0.16608882 0.047652222
0.30318472 0.038004339 0.05615091
-0.29290512 0.042067826 -0.050814141
-0.27494529 0.042068183 -0.047492061
-0.26596448 0.042068124 -0.045830864
-0.21805592 0.042068481 -0.036969114
-0.20756702 0.04861635 -0.034758862
-0.20066231 0.052924216 -0.03330398
-0.17220025 0.062524378 -0.027643297
-0.15088472 0.067527652 -0.023494136
-0.11817997 0.073005736 -0.017218705
-0.031243447 0.080871284 -0.00081343576
-0.011185351 0.082027793 0.0029444583
0.023114849 0.083075702 0.0093322583
0.025328524 0.15752798 0.012812871
0.053214073 0.16608655 0.018323954
0.076364495 0.16608679 0.022606144
0.08408244 0.16608691 0.024033751
0.18446535 0.16608787 0.042601816
0.25849846 0.071822286 0.052407425
0.2676484 0.070493996 0.054045111
0.28019357 0.067849994 0.056256551
0.28965536 0.065855801 0.057924464
-0.22022232 0.047604263 -0.034056086
-0.18148085 0.062575698 -0.026325647
-0.16017735 0.067236125 -0.022209302
-0.13333493 0.071725726 -0.017074786
-0.10693656 0.074750841 -0.012077563
-0.08073964 0.077556312 -0.0071258806
-0.072072104 0.078128099 -0.0055009872
0.034729309 0.1660859 0.017568398
0.093882613 0.16608649 0.028510854
0.1170384 0.16608673 0.032794319
0.12475808 0.16608679 0.034222338
0.14277278 0.16608697 0.037554786
0.1530683 0.16608709 0.039459296
0.17108771 0.16608721 0.042792607
0.2756981 0.062159479 0.058229592
0.3031846 0.043010235 0.062592939
-0.25203207 0.04206717 -0.037044946
-0.24005882 0.042067349 -0.034829918
-0.22926065 0.049192429 -0.032589484
-0.20942049 0.057831109 -0.028624732
-0.2000493 0.060295403 -0.026807118
-0.19075693 0.062626898 -0.025008608
-0.17247884 0.06644249 -0.02149719
-0.15151145 0.069944203 -0.017498966
-0.09575744 0.076341152 -0.0069666617
-0.061088257 0.078372896 -0.00048374385
-0.043813996 0.079369903 0.0027459078
-0.017982174 0.080184519 0.0075524691
0.010681043 0.080521107 0.012866538
0.04710187 0.16608548 0.022520155
0.10368086 0.1660862 0.032987103
0.13455459 0.16608644 0.038698643
0.20920232 0.16608721 0.052508246
0.2647917 0.057753503 0.059100267
0.28488329 0.050820947 0.062580884
-0.29444164 0.042066276 -0.041788068
-0.2854661 0.042066395 -0.04012752
-0.27050546 0.042066574 -0.037359659
-0.26152828 0.042066634 -0.035698798
-0.24192388 0.048181832 -0.03188533
-0.21870993 0.058003604 -0.027291033
-0.11373347 0.074810326 -0.0073569454
-0.032880504 0.078799844 0.0077232271
-0.0070412802 0.079103649 0.012512978
0.021653265 0.079441011 0.017832011
0.062043317 0.16608518 0.027946671
0.19582193 0.16608661 0.052696943
0.22414243 0.16608691 0.057936497
0.26938808 0.041672111 0.062513433
-0.25090873 0.049767077 -0.030424666
-0.23116393 0.057272434 -0.026569482
-0.20929545 0.062729478 -0.022376496
-0.18204851 0.067364275 -0.01721051
-0.12883593 0.073588192 -0.0071975589
-0.10267937 0.075191915 -0.0023148842
-0.076624945 0.076696932 0.0025462396
0.0255735 0.16608447 0.023860622
0.074411437 0.16608489 0.03289669
0.08469592 0.16608506 0.034799546
0.15414165 0.16608572 0.047648497
0.18244712 0.16608602 0.052885622
-0.27751896 0.042065442 -0.03245442
-0.26357985 0.048758209 -0.029719088
-0.19737796 0.066069067 -0.017065685
-0.17052308 0.069525003 -0.012015998
-0.16165486 0.070472956 -0.010352965
-0.14397644 0.0723629 -0.0070377775
-0.091650769 0.075438678 0.0027159825
-0.065689504 0.075984478 0.0075324215
-0.057046574 0.076086223 0.0091340281
0.032801602 0.16608411 0.027858492
0.094490349 0.16608465 0.039272994
0.11248952 0.16608489 0.042603448
0.11763272 0.16608489 0.043555114
0.14077999 0.16608512 0.047838144
0.16650502 0.16608548 0.052598141
0.3031821 0.044662535 0.075055331
-0.29298636 0.042064607 -0.032216612
-0.27627575 0.047747195 -0.029012177
-0.24663483 0.058161616 -0.023321573
-0.04610531 0.074995816 0.014118014
-0.025934514 0.074586987 0.017842466
-0.017284155 0.074255943 0.019436639
3.9021485e-05 0.073594332 0.022629159
0.0087118139 0.073263168 0.024227481
0.02897758 0.072489083 0.027962292
0.045167007 0.16608375 0.032806359
0.12999545 0.16608453 0.048503526
0.20716976 0.16608536 0.062784329
0.21489024 0.16608548 0.064212978
-0.2853024 0.048983455 -0.027583826
-0.25593403 0.058214366 -0.02199972
-0.23120947 0.06296283 -0.01734747
-0.22207093 0.06447798 -0.015631806
-0.20406514 0.066731632 -0.012263257
-0.1247308 0.072743893 0.0025154129
-0.11604098 0.072946966 0.0041268207
-0.035174228 0.072685778 0.01908765
0.019848619 0.069994926 0.029226571
0.057530239 0.1660834 0.037753392
0.083228007 0.16608363 0.042508978
0.19379772 0.16608483 0.062970825
0.22467452 0.16608512 0.068684831
-0.2979244 0.048233628 -0.02685589
-0.27476132 0.055914044 -0.022472404
-0.2652286 0.058266938 -0.020678554
-0.24667516 0.061655819 -0.017202202
-0.19259638 0.068351567 -0.0071095228
-0.18670698 0.06876564 -0.0060143583
-0.16618577 0.069952965 -0.002201546
-0.15740769 0.070460975 -0.00057058036
-0.13988718 0.071438253 0.002684243
-0.10513579 0.071849585 0.0091208853
-0.08487533 0.072088957 0.01287351
-0.076210037 0.071999371 0.014476072
-0.058900427 0.071332216 0.017671168
0.0077607958 0.067427218 0.029959032
0.026220471 0.16608262 0.034617327
0.069891289 0.16608316 0.042699508
0.098158248 0.16608334 0.047930896
0.15214288 0.16608387 0.057921857
0.17785928 0.16608411 0.062681206
-0.29047391 0.054392099 -0.022346441
-0.17557012 0.069016457 -0.00094795227
-0.097121276 0.070533276 0.013585245
-0.047975771 0.068637431 0.022664146
-0.027680632 0.067296267 0.026408341
-0.021872709 0.066684842 0.027477777
-0.010230615 0.065459073 0.029621482
-0.0014760597 0.064537287 0.031233493
0.01902828 0.062378824 0.035009041
0.027852893 0.061363637 0.036633179
0.033444304 0.1660822 0.038611658
0.11051614 0.16608298 0.052876331
0.11822635 0.1660831 0.054303359
0.13621895 0.16608328 0.057633482
0.16449909 0.16608351 0.062867641
-0.25323895 0.062671661 -0.012357313
-0.22623168 0.065552294 -0.0073427521
-0.21734391 0.066203296 -0.005694136
-0.11809617 0.06906271 0.012691664
-0.039938055 0.064713895 0.027134715
0.04323443 0.16608191 0.043080367
0.20256783 0.16608351 0.072572201
0.21285547 0.16608363 0.074476391
-0.26871485 0.061418176 -0.012202229
-0.24162224 0.064306676 -0.0071818233
-0.20616546 0.066455901 -0.00061452016
-0.18857859 0.067160487 0.0026422516
-0.15947372 0.067506075 0.0080304127
-0.1507456 0.067609489 0.0096462425
-0.13336042 0.067363024 0.012863914
-0.1073329 0.066352367 0.017679919
-0.08124914 0.06519717 0.022506066
-0.069682099 0.063967764 0.024644926
-0.055174217 0.062425613 0.027327579
-0.025993954 0.059313357 0.032723274
-0.017205825 0.057283998 0.034346249
-0.0054217814 0.054562867 0.036522508
0.0034665018 0.052510381 0.038163979
0.015385334 0.049755812 0.040365122
0.024529073 0.043836534 0.042046696
0.027347062 0.16608131 0.042795479
0.053022623 0.16608155 0.04754822
0.081272811 0.16608179 0.052777536
0.088978648 0.16608196 0.054203942
0.18920483 0.16608292 0.072756544
0.22263415 0.16608328 0.078944556
-0.28423023 0.060161471 -0.012046795
-0.17769589 0.066049457 0.0076646917
-0.1718671 0.066118598 0.0087435972
-0.096575022 0.062912285 0.022687141
-0.047178514 0.056930482 0.031841673
-0.035489991 0.054207802 0.03401012
-0.026673704 0.052154183 0.035645712
-0.0089094592 0.046459198 0.038943995
0.00011172425 0.039359868 0.040626183
0.0068153357 0.0019132495 0.041931428
0.01308282 0.0019133687 0.043091666
0.025618739 0.0019133091 0.045412306
0.067944393 0.16608125 0.05296582
0.098762885 0.16608161 0.058670927
0.12188247 0.16608179 0.062950812
0.14757673 0.16608208 0.06770733
0.17584738 0.16608238 0.072940782
-0.29674694 0.059225321 -0.011330143
-0.25510141 0.10001361 -0.0038360134
-0.24876903 0.063194752 -0.0024689063
-0.21933475 0.06431061 0.0029744171
-0.12640198 0.06216377 0.020190595
-0.11486696 0.060925901 0.02233264
-0.080051959 0.057190359 0.028797772
-0.071372978 0.055216968 0.030414963
-0.059742335 0.052483976 0.032582626
-0.039237402 0.046725929 0.036409207
-0.030472122 0.039632797 0.038069461
-0.0031660241 0.0019127131 0.043324243
0.03408625 0.16608053 0.04935234
0.10854509 0.16608119 0.06313704
0.13423243 0.16608143 0.067892581
0.15992588 0.16608173 0.072649248
0.21390183 0.16608226 0.082641929
-0.27614433 0.079366982 -0.004662957
-0.26423594 0.061900675 -0.0023033991
-0.23770723 0.062844336 0.0025998726
-0.23185588 0.062914073 0.0036826022
-0.20845735 0.063192546 0.0080122389
-0.1997474 0.063022077 0.0096263476
-0.16208863 0.061546385 0.016611725
-0.15052162 0.06079495 0.018759947
-0.10716224 0.056119919 0.02682912
-0.095653109 0.053497493 0.028983211
-0.069530383 0.046992362 0.033877335
-0.061020419 0.039905548 0.035515714
0.002518612 0.001912117 0.047616329
0.030715544 0.0019122958 0.05283682
0.043870673 0.16608012 0.053817406
0.20054166 0.16608167 0.082824111
0.22624701 0.16608196 0.087583311
-0.28405729 0.10778499 -0.0035228357
-0.27974382 0.060603261 -0.0021374896
-0.19207498 0.060389042 0.01409762
-0.17183739 0.059111416 0.017860629
-0.14012183 0.055675209 0.023775697
-0.12288604 0.052457511 0.027007028
-0.11714804 0.051084936 0.028086517
-0.099822015 0.046936274 0.031346135
-0.091533229 0.040178061 0.032964893
0.014466706 0.0019116402 0.053067286
0.02579613 0.15833843 0.053219907
0.053653084 0.1660797 0.058281541
0.076752983 0.16608006 0.062558636
0.084454 0.16608006 0.063984528
0.18461749 0.16608107 0.082530424
-0.29529276 0.05930239 -0.0019710921
-0.18173796 0.056170821 0.019105822
-0.16154602 0.053972781 0.022879915
-0.15017134 0.051415443 0.02502708
-0.13301875 0.047272146 0.02826952
-0.12201065 0.040450215 0.030417062
-0.0049070553 0.0019109845 0.052717805
0.035208613 0.1660791 0.057518438
0.063433558 0.16607934 0.062744819
0.094232768 0.1660797 0.068447866
0.11733791 0.16607988 0.072726205
0.12504074 0.16607994 0.074152529
0.14558424 0.16608024 0.077956535
0.17126907 0.16608047 0.082712561
-0.25804085 0.058298171 0.0079751909
-0.25224522 0.058068633 0.0090529211
-0.23774131 0.057494462 0.011750001
-0.23193356 0.057265341 0.012829978
-0.2204199 0.056352973 0.014979951
-0.21182789 0.055412889 0.016589429
-0.20034136 0.054156423 0.018741112
-0.17184925 0.048992276 0.024118386
-0.16047432 0.046218216 0.02627911
-0.15245266 0.040722013 0.027872154
0.0039065564 0.0019104481 0.057586629
0.032091498 0.0019106865 0.062805943
0.10400952 0.1660794 0.072910249
0.13481578 0.16607958 0.07861498
0.15792622 0.16607994 0.082894593
0.21186972 0.16608047 0.092883885
-0.27663311 0.056674838 0.0076010749
-0.19646205 0.047249079 0.022666346
-0.18537122 0.043360233 0.024810296
0.015849341 0.0019099712 0.063034266
0.044506133 0.16607833 0.064541951
0.19594921 0.16607982 0.092588142
0.22420779 0.16608006 0.097821429
-0.29238662 0.054930389 0.007766135
-0.25785333 0.052317977 0.014231663
-0.25213146 0.05168581 0.01530828
-0.23790604 0.049657762 0.017997071
-0.22676203 0.046890616 0.020134915
-0.21553408 0.044151008 0.022287566
-0.20659558 0.044151008 0.023943022
-0.0035163453 0.0019093752 0.062682718
0.02607264 0.16607761 0.063777737
0.054282799 0.16607797 0.069002405
0.074803963 0.16607815 0.072803035
0.082500368 0.16607815 0.074228451
0.18260357 0.16607928 0.092768088
0.0052932957 0.0019087791 0.067548357
0.033284843 0.16607726 0.067762367
0.064057544 0.16607761 0.073462009
0.094838977 0.16607785 0.079163276
0.11536476 0.16607809 0.082965001
0.12306297 0.16607815 0.084390849
0.14102751 0.16607833 0.087718189
0.14872749 0.16607845 0.089144364
0.16926348 0.16607863 0.092947982
-0.29846516 0.048566997 0.012937211
-0.29013324 0.046867669 0.014538031
-0.28188756 0.044780731 0.016136002
-0.2701779 0.044149518 0.01832635
-0.21955474 0.044149816 0.027703263
0.017230786 0.0019084215 0.072992593
0.023490541 0.0019084215 0.074152082
0.032880791 0.0019084811 0.075891435
0.045623239 0.1660769 0.072695896
0.10460998 0.16607755 0.083621994
0.15849553 0.16607815 0.093603194
0.2072722 0.16607869 0.10263808
0.21497576 0.16607869 0.104065
-0.26175994 0.04414916 0.02296393
-0.24985147 0.044149101 0.025169883
-0.23496422 0.04414928 0.027927633
-0.20816265 0.044149458 0.032892402
0.086165562 0.16607684 0.082853533
0.19392936 0.16607803 0.1028159
0.22473869 0.16607839 0.10852309
-0.28013209 0.044148386 0.022637852
-0.0027067577 0.0019071698 0.075762756
0.0066788355 0.0019071102 0.077501476
0.026717901 0.16607583 0.074487843
0.054911837 0.16607612 0.079710886
0.070293382 0.1660763 0.082560375
0.12414619 0.1660769 0.092536822
0.15236543 0.16607708 0.097764552
0.17802571 0.16607738 0.10251823
-0.2925455 0.04414767 0.023414325
-0.26874003 0.044147909 0.027824689
0.018611029 0.0019068122 0.082942359
0.027996831 0.0019067526 0.084681243
0.033925865 0.16607547 0.078468934
0.092880502 0.16607606 0.089391232
0.11082958 0.16607624 0.092716604
0.13904127 0.1660766 0.097943261
0.16469461 0.16607678 0.10269596
-0.25735021 0.044147372 0.033010542
-0.24544641 0.044147491 0.035216048
-0.23056507 0.044147789 0.037973233
-0.22163546 0.044147849 0.039627705
0.043694608 0.16607511 0.082923912
0.20524643 0.16607678 0.11285599
0.21294537 0.16607678 0.11428243
-0.21024989 0.044147432 0.044812538
-0.0044454522 0.0019053817 0.08512824
0.011190589 0.0019055605 0.088025436
0.05602368 0.16607481 0.087852731
0.081649914 0.16607505 0.092601031
0.18934642 0.16607612 0.1125562
0.22270273 0.16607642 0.11873682
-0.29109871 0.044146121 0.032905489
-0.28217596 0.044146121 0.0345589
-0.2643286 0.04414624 0.037866075
-0.23755287 0.044146478 0.042827707
0.019990087 0.0019050837 0.09288355
0.029371873 0.0019052029 0.094622016
0.027362421 0.16607404 0.085185491
0.068350509 0.16607451 0.092780709
0.093975969 0.16607475 0.09752918
0.12217098 0.16607499 0.1027538
0.12986177 0.16607499 0.10417892
0.1478091 0.16607529 0.10750462
0.17601812 0.16607553 0.11273183
-0.25294402 0.044145823 0.043048695
-0.22616972 0.044146061 0.048010372
0.00064856652 0.0019043684 0.092525914
0.03456613 0.16607368 0.089163065
0.10886265 0.16607434 0.10293134
0.13962092 0.16607469 0.1086313
0.16269532 0.16607499 0.11290734
0.21655476 0.16607553 0.12288831
-0.21478884 0.044145644 0.053192049
0.044329159 0.16607332 0.093614392
0.20065835 0.16607493 0.12258646
0.22887291 0.16607517 0.1278154
-0.28668025 0.044144511 0.042939425
-0.27478796 0.044144571 0.045143537
-0.23315591 0.044144869 0.052859612
0.0088653462 0.0019032955 0.10049888
0.021367952 0.0019034743 0.1028161
0.027619768 0.0019034743 0.10397482
0.026260637 0.15914345 0.093363404
0.054090217 0.16607296 0.098064803
0.079701073 0.1660732 0.1028115
0.1873329 0.16607434 0.12275992
-0.29313487 0.044143915 0.044813022
-0.2663807 0.044144154 0.049771938
-0.25151494 0.044144273 0.052527349
0.06384927 0.16607261 0.10251433
0.092020012 0.16607291 0.10773581
0.099704199 0.16607302 0.1091601
0.1201981 0.1660732 0.11295867
0.12788424 0.16607326 0.11438331
0.14582086 0.16607338 0.11770788
0.15350887 0.1660735 0.11913288
0.1740129 0.16607374 0.12293333
-0.22527087 0.044144034 0.060461555
-0.0016696872 0.001902163 0.10499261
0.032646101 0.16607189 0.09937042
0.10945934 0.16607267 0.11360881
0.16326098 0.16607308 0.12358168
0.21196169 0.16607368 0.13260904
0.21965325 0.1660738 0.13403477
-0.28226557 0.044142902 0.052964985
0.010247347 0.0019016266 0.11042343
0.022744685 0.001901865 0.11274014
0.044962969 0.16607159 0.1042925
0.19863892 0.16607314 0.13278033
-0.29466033 0.044142306 0.053734466
-0.27088988 0.044142544 0.058141235
-0.26197481 0.044142604 0.059793986
-0.24711493 0.044142783 0.062548831
-0.23522571 0.044142962 0.064752936
0.026569542 0.16607088 0.10352083
0.054718308 0.16607112 0.10873929
0.075194716 0.16607136 0.11253537
0.12896369 0.16607189 0.12250349
0.15713906 0.16607213 0.12772687
0.18532175 0.16607249 0.13295162
0.22889118 0.16607291 0.14102887
-0.22682649 0.044142663 0.069377124
-0.0034065712 0.0019004345 0.11433291
0.015332465 0.0019007325 0.11780713
0.036324494 0.16607052 0.10796663
0.064471662 0.16607082 0.11318514
0.090066381 0.16607112 0.1179304
0.097745962 0.16607112 0.1193542
0.11566713 0.16607136 0.12267679
0.14368473 0.16679645 0.12781063
0.16944838 0.16607183 0.13264786
-0.27785447 0.044141412 0.062982142
0.0053826161 0.0019000173 0.11918144
0.024120174 0.0019001961 0.12265562
0.033489913 0.0019003153 0.12439288
0.20993634 0.16607183 0.14279306
0.21762332 0.16607195 0.14421833
-0.29618451 0.044140697 0.062647991
-0.26945433 0.044140995 0.067604415
-0.26054305 0.044141173 0.069256783
-0.24271858 0.044141352 0.07256189
-0.23677647 0.044141591 0.073663682
0.043038115 0.16606969 0.11448395
0.19662189 0.1660713 0.14296216
0.01671071 0.0018990636 0.12771726
0.027213119 0.16606909 0.11418456
0.052787885 0.16606933 0.11892706
0.073252007 0.16606951 0.12272187
0.10139654 0.16606981 0.12794091
0.12885892 0.16973805 0.13268758
0.15687895 0.16973835 0.13788353
0.18075219 0.16607064 0.14265636
-0.0025989199 0.0018982887 0.12735261
0.0036435742 0.0018984079 0.12851027
0.025494486 0.0018985868 0.13256247
0.034405369 0.16606861 0.11815253
0.062535658 0.16606903 0.12336926
0.085556842 0.16606921 0.12763852
0.11563557 0.1697374 0.13285773
0.14110118 0.16973782 0.13758028
0.16912034 0.16973799 0.1427764
0.22122505 0.16607064 0.15279803
0.22890943 0.16607064 0.1542231
-0.2917704 0.044139147 0.072654739
-0.27989581 0.044139385 0.074856989
-0.26505107 0.044139385 0.077610143
-0.25614339 0.044139326 0.079262182
0.044152733 0.16606832 0.12259382
0.20791338 0.1660701 0.15296505
-0.29821458 0.04413861 0.074520491
-0.24478073 0.044138968 0.084431067
-0.0037555676 0.0018971562 0.13356748
0.033692371 0.0018975735 0.14051308
0.056454904 0.16606802 0.12750843
0.19204725 0.16606939 0.15265717
0.1997274 0.16606951 0.15408164
0.0050259912 0.001896739 0.13840958
0.014386217 0.001896739 0.14014576
0.071311593 0.16606772 0.13289636
0.098898575 0.16973609 0.13761544
0.12689455 0.16973615 0.1428083
0.15235174 0.16973639 0.14753023
0.15999001 0.16973662 0.14894702
0.18036155 0.16973686 0.15272564
-0.28736001 0.044137716 0.08265309
-0.27549016 0.044137836 0.084854908
-0.26065135 0.044137955 0.087607495
0.023165055 0.0018963814 0.14498681
0.027377713 0.16606683 0.1273784
0.035043955 0.16606694 0.12880048
0.083609335 0.16606736 0.13780925
0.11113469 0.16973555 0.14250426
0.13912976 0.16973585 0.14769727
0.16967806 0.16973633 0.15336388
0.21919619 0.16606879 0.16296026
-0.29973555 0.04413712 0.083415613
0.044785686 0.16606659 0.13323811
0.20333371 0.1660682 0.1626503
0.22892767 0.16606843 0.16739821
-0.0029483652 0.0018949509 0.14656474
0.0032886155 0.0018950105 0.14772181
0.012644636 0.0018951297 0.14945757
0.031358726 0.0018953085 0.15292943
0.026722118 0.15994328 0.13324596
0.054525405 0.16606617 0.13767487
0.19159412 0.16973561 0.16266726
-0.28295335 0.044136107 0.09264306
-0.27702093 0.044136226 0.093743704
0.066818327 0.16606587 0.14258479
0.074283332 0.16782904 0.14375357
0.096953303 0.16973394 0.14772603
0.12493245 0.16973448 0.15291709
0.15037437 0.16973472 0.15763742
0.15800808 0.16973484 0.15905371
0.17836742 0.16973501 0.16283107
-0.2982899 0.04413563 0.092853159
-0.26566699 0.044135988 0.098906189
0.033127837 0.16606504 0.13896221
0.083753802 0.16973341 0.14789286
0.10918234 0.1697337 0.15261102
0.13716058 0.16973418 0.15780225
0.16769066 0.16973442 0.16346698
0.2146115 0.166067 0.17263576
0.22484492 0.16606706 0.17453454
0.0046699904 0.0018934011 0.15760419
0.014022092 0.0018934608 0.15933953
0.032728165 0.0018936396 0.16281061
0.04286401 0.1660648 0.14339618
0.20281817 0.1697343 0.17260121
-0.27855036 0.044134557 0.10262471
0.022793259 0.0018929839 0.16417418
0.027064338 0.16606408 0.14309099
0.052598171 0.16606438 0.14782931
0.16161042 0.16973346 0.16757002
0.18959415 0.16973376 0.17276293
-0.29388136 0.04413414 0.10283265
-0.0027197869 0.0018922091 0.16264558
0.036797971 0.16606379 0.14752319
0.067055024 0.16973215 0.15263662
0.07467851 0.16973203 0.15405144
0.095010258 0.16973233 0.15782464
0.12043032 0.16973263 0.16254216
0.14839938 0.16973281 0.16773273
0.17637566 0.16973323 0.17292461
0.22588062 0.16606569 0.18261358
0.0091661112 0.001891911 0.1680564
0.034096465 0.0018920302 0.17268334
0.084360003 0.16973174 0.15846087
0.10723229 0.16973197 0.16270585
0.13519381 0.16973221 0.16789535
0.21258898 0.1660651 0.18277414
0.017933901 0.001891315 0.17288789
0.04349691 0.16606295 0.15401608
0.20081231 0.16973263 0.18268719
-0.001336867 0.0018905997 0.17251414
0.053225406 0.16606265 0.15844554
0.15962952 0.1697318 0.17765552
0.1875965 0.16973203 0.18284674
0.010543833 0.0018901825 0.17792171
0.027228776 0.16606188 0.15624283
0.034882743 0.16606194 0.15766366
0.065131038 0.16973025 0.16272511
0.072749943 0.16973031 0.16413939
0.093069538 0.16973048 0.16791135
0.11847439 0.16973078 0.17262727
0.14642665 0.16973132 0.17781605
0.17184417 0.1697315 0.18253432
0.17947054 0.1697315 0.18394999
0.22385226 0.1660639 0.19274218
0.019307647 0.0018897057 0.18274997
0.028651234 0.0018897653 0.18448454
0.047160227 0.16606164 0.16256493
0.084965512 0.16973001 0.1690167
0.10528451 0.16973019 0.1727888
0.13068855 0.1697306 0.17750485
0.21202184 0.16973126 0.19260383
0.19880877 0.16973084 0.19276126
-0.00053251348 0.0018883944 0.18546639
0.011920321 0.0018885732 0.18777847
0.0535364 0.16972893 0.1683985
0.076382257 0.16972899 0.17264025
0.15765101 0.16972989 0.18772919
0.18560126 0.16973019 0.1929186
0.020680208 0.0018880963 0.1926036
0.030019876 0.0018882155 0.19433777
0.032969762 0.16606021 0.16779219
0.06320931 0.16972834 0.17280172
0.088592447 0.1697287 0.17751481
0.11652076 0.16972899 0.18270053
0.14445636 0.16972917 0.18788759
0.16985862 0.16972959 0.19260424
0.22182624 0.16606212 0.20285885
0.22948948 0.16606224 0.20428178
0.027392972 0.16605967 0.16937563
0.045240186 0.16605991 0.17268971
0.10333904 0.1697284 0.18285988
0.12872793 0.16972858 0.18757439
0.21001253 0.16972959 0.20266818
-0.0022636205 0.0018867254 0.19473739
0.19680771 0.16972899 0.20282345
0.0096050827 0.0018863082 0.20013724
0.025163405 0.0018864274 0.20302668
0.034499321 0.0018865466 0.20476049
0.054159157 0.16972685 0.17893805
0.074454635 0.16972709 0.18270721
0.15567479 0.16972816 0.19779101
0.18106858 0.16972846 0.202507
0.031059027 0.16605836 0.17790876
0.06382636 0.16972655 0.18333755
0.086657822 0.16972679 0.18757796
0.094269373 0.16972685 0.18899164
0.11456945 0.16972709 0.19276191
0.1424883 0.16972756 0.19794719
0.16787539 0.1697278 0.20266226
0.21980262 0.16606027 0.21296361
-0.00088290218 0.0018851161 0.20457797
0.043322414 0.166058 0.18280253
0.10393299 0.16972649 0.19339037
0.12676959 0.16972679 0.19763201
0.20800558 0.16972774 0.21272071
0.22950724 0.16606003 0.21738438
0.0078704497 0.0018845797 0.20939673
0.026532348 0.0018847585 0.21286321
0.032753546 0.0018848181 0.21401882
0.19480897 0.16972709 0.21287383
0.054781117 0.16972506 0.18946528
0.072529279 0.16972524 0.19276227
0.15370095 0.16972619 0.20784098
0.17907959 0.16972643 0.21255541
-0.0026123486 0.0018834472 0.21383248
0.029150553 0.16605651 0.18801349
0.064442679 0.16972476 0.19386123
0.084725454 0.16972488 0.19762929
0.094868205 0.16972512 0.19951355
0.11262039 0.16972542 0.20281146
0.13798577 0.16972554 0.20752376
0.16589455 0.16972584 0.21270853
0.21778138 0.16605848 0.22305651
0.22798698 0.16605866 0.22495244
0.0030286722 0.0018829107 0.21807055
0.01546375 0.0018831491 0.22038083
0.027900055 0.0018832684 0.22269131
0.043687087 0.16972417 0.1926055
0.10452621 0.16972482 0.20390864
0.12481353 0.16972518 0.20767775
0.206001 0.16972595 0.22276139
0.19281255 0.16972536 0.2229124
0.020522535 0.0018820167 0.22769861
0.052868605 0.16972333 0.19950961
0.07060618 0.16972357 0.20280546
0.095950603 0.16972387 0.20751473
0.15172939 0.1697244 0.21787912
0.17709288 0.16972458 0.22259195
0.18470311 0.16972482 0.224006
0.22646804 0.16605723 0.2325138
0.0044057472 0.0018812418 0.22789133
0.029266588 0.0018815398 0.23251106
0.027484369 0.1612708 0.1991425
0.034880597 0.16605479 0.19952534
0.082795337 0.16972327 0.20766877
0.11067366 0.16972351 0.2128492
0.13602386 0.16972387 0.21755987
0.16391598 0.16972399 0.2227429
0.21576256 0.16605675 0.2331375
0.044314511 0.16972244 0.20311524
0.12294236 0.16926414 0.21782388
0.20399873 0.16972423 0.23279025
-0.0027922522 -0.019727111 0.23755603
0.021891858 0.0018802881 0.23751308
0.053968318 0.16972202 0.20750582
0.19081847 0.16972369 0.23293909
0.0057816459 0.0018795133 0.23770367
0.033738568 0.0018799305 0.2428997
0.035993375 0.16605347 0.20755969
0.068685338 0.16972172 0.21283692
0.094014637 0.16972208 0.21754457
0.14976013 0.16972256 0.22790544
0.17510846 0.16972297 0.23261665
0.22444485 0.1660555 0.24258527
0.080867521 0.16972136 0.21769643
0.1087292 0.16972172 0.22287512
0.13406427 0.16972208 0.2275842
0.16193974 0.16972238 0.23276542
0.21374607 0.16605484 0.24320661
0.026365489 0.0018787384 0.24789636
0.044941217 0.16972059 0.21361293
0.12090835 0.16972154 0.22773397
0.20199892 0.16972232 0.2428074
0.0071563637 0.0018780231 0.24750754
0.013365856 0.0018781424 0.24866186
0.027696755 0.15068763 0.21734653
0.054589398 0.16972029 0.21799988
0.18882681 0.16972172 0.24295409
-0.0026284251 -0.01110065 0.25187841
0.034520514 0.0018777251 0.25577575
0.034084987 0.16605157 0.21763118
0.066766761 0.16971999 0.22285654
0.092080936 0.16972035 0.22756262
0.099676386 0.16972053 0.22897466
0.14779316 0.16972095 0.23791997
0.17312644 0.16972095 0.24262969
0.22242412 0.16605359 0.2526449
0.2275189 0.16605371 0.25359207
0.078941941 0.16971982 0.22771227
0.10931873 0.16972011 0.23335992
0.13210699 0.16972035 0.23759671
0.13970411 0.16972041 0.2390092
0.15996587 0.16972041 0.24277629
0.21173197 0.16605306 0.25326389
0.011633295 0.0018763542 0.25788015
0.017840363 0.0018763542 0.25903422
0.04303734 0.16971874 0.22362812
0.11895919 0.16971976 0.23774438
0.20000142 0.16972041 0.25281274
-0.0013551833 0.0018756986 0.25864321
0.029675327 0.001875937 0.26441315
0.052680053 0.1697185 0.22801147
0.18683743 0.16971987 0.25295722
0.027849782 0.15097171 0.230593
0.032178845 0.16604978 0.22769077
0.064850435 0.16971821 0.23286441
0.090149537 0.16971862 0.2375689
0.097740456 0.16971868 0.23898049
0.14582863 0.1697188 0.24792284
0.17114669 0.16971934 0.25263083
0.22040568 0.16605181 0.26269269
0.22804339 0.16605192 0.26411298
0.01300435 0.0018748045 0.26766703
0.077018656 0.16971785 0.23771645
0.10990766 0.16971815 0.24383278
0.13015206 0.16971827 0.24759762
0.15799426 0.16971874 0.25277531
0.20717499 0.16605127 0.26283607
2.116058e-05 0.0018740296 0.26842797
0.024834488 0.0018743277 0.27304277
0.034140721 0.0018743873 0.27477354
0.038848788 0.166049 0.23413377
0.11954249 0.16971773 0.24821368
0.048244782 0.16971684 0.23754115
0.18485035 0.16971815 0.26294869
0.1949762 0.16971833 0.26483199
0.017475132 0.001873076 0.2780225
0.027937707 0.16206247 0.23833962
0.062936343 0.16971654 0.24286051
0.088220425 0.1697166 0.24756353
0.098335721 0.16971666 0.24944502
0.14386629 0.16971725 0.25791383
0.16916929 0.16971749 0.26262027
0.21838963 0.16605008 0.27272868
0.22856735 0.16605008 0.27462178
-0.0017036935 0.0018723607 0.27762774
0.026199169 0.0018727779 0.28281814
0.028002415 0.15125513 0.24381042
0.075097606 0.16971606 0.2477089
0.10796703 0.16971642 0.25382316
0.12819932 0.16971672 0.25758666
0.15602498 0.16971695 0.2627627
0.20516713 0.16604942 0.27286997
0.034921326 0.0018722415 0.28761268
0.039480783 0.16604722 0.24464762
0.11759637 0.169716 0.25820041
0.1970361 0.16604894 0.27395728
0.048868064 0.16971499 0.2479995
0.10194153 0.1697157 0.25787327
0.18286565 0.16971648 0.27292839
0.22959572 0.16604877 0.28261378
0.0027703177 0.001870811 0.28797245
0.015165946 0.0018708706 0.29027864
0.028373264 0.16604608 0.24777471
0.061024502 0.16971469 0.25284493
0.086293496 0.16971505 0.25754625
0.14190626 0.16971552 0.26789317
0.16719422 0.16971576 0.27259803
0.1747818 0.16971582 0.27400973
0.21637595 0.16604829 0.2827529
0.023885131 0.001870513 0.29507011
0.040588938 0.1660459 0.25264314
0.073178813 0.16971427 0.2576896
0.10855601 0.16971463 0.26427203
0.12624893 0.16971487 0.26756403
0.15405799 0.16971523 0.27273828
0.20316164 0.16604769 0.28289205
0.032602429 0.0018699765 0.29986048
0.028154716 0.15153807 0.25699872
0.18741141 0.16604692 0.28255823
0.19503573 0.16604716 0.28397691
0.0041431328 0.0018691421 0.29773211
0.013435836 0.0018692017 0.29946133
0.049490653 0.16971308 0.25844589
0.10000733 0.16971374 0.26784641
0.22757621 0.16604704 0.29262838
0.025248826 0.0018687248 0.3048262
0.029010691 0.16604441 0.25827113
0.059114918 0.16971278 0.26281774
0.084368885 0.16971308 0.26751745
0.11215514 0.16971344 0.27268848
0.13994852 0.1697138 0.27786079
0.16522144 0.16971397 0.2825641
0.17280452 0.16971409 0.2839753
0.21436466 0.1660465 0.29276544
0.033962246 0.0018684268 0.30961341
0.038682498 0.16604406 0.26266372
0.071262263 0.16971248 0.26765862
0.12430079 0.1697132 0.27752969
0.15209334 0.16971338 0.28270221
0.20115846 0.16604578 0.29290238
0.0086109927 0.0018674731 0.30805978
0.050888982 0.16604382 0.26752761
0.18541791 0.16604519 0.29256663
-0.0012513613 0.0018669963 0.30938753
0.020419151 0.0018671751 0.31342119
0.028306678 0.1518203 0.2701582
0.098075382 0.16971195 0.2778078
0.17476244 0.16604465 0.29317617
0.029129181 0.0018666387 0.31820542
0.029647402 0.16604263 0.26875553
0.057541266 0.16604292 0.27394786
0.084970772 0.16971135 0.27794677
0.11021625 0.16971159 0.28264621
0.13799314 0.16971189 0.28781682
0.163251 0.16971219 0.29251847
0.21235569 0.16604459 0.3027662
0.0099801673 0.0018659234 0.31780258
0.039313596 0.16604233 0.27314451
0.069347955 0.16971081 0.27761593
0.12487975 0.16971129 0.2879537
0.15013099 0.16971153 0.29265448
0.19915767 0.16604406 0.30290097
0.00012176856 0.0018652678 0.3191281
0.018688444 0.0018655658 0.32258466
0.0489778 0.16604197 0.2775327
0.18342674 0.16604334 0.30256325
0.030489292 0.0018651485 0.32794181
0.096145704 0.16971016 0.28775758
0.17024022 0.16604275 0.30269805
0.011348153 0.0018643141 0.32753715
0.028458308 0.15210181 0.28328896
0.030283384 0.16604078 0.27922785
0.058161341 0.1660412 0.28441855
0.083049163 0.16970962 0.28789446
0.10827965 0.1697098 0.29259226
0.13603997 0.16971022 0.29776105
0.1570591 0.16604221 0.30283287
-0.0015991498 0.0018635988 0.32828441
