# .PCD v0.7 - Point Cloud Data file format
VERSION 0.7
FIELDS x y z
SIZE 4 4 4
TYPE F F F
COUNT 1 1 1
WIDTH 1334
HEIGHT 1
VIEWPOINT 0 0 0 1 0 0 0
POINTS 1334
DATA ascii
-0.19776963 0.1824729 -0.21789452
0.14292847 0.19479993 -0.11333136
0.19308263 0.19477561 -0.10495703
0.19567385 0.20233487 -0.075669996
-0.20834027 0.23163725 -0.025319155
-0.19777511 0.18598825 -0.19563743
-0.17656076 0.14702605 -0.33898315
-0.16488764 0.14651178 -0.33898464
0.041709591 0.13740955 -0.33901283
0.058630552 0.13666402 -0.33901522
0.16328026 0.19477807 -0.1025921
-0.19782285 0.23236401 -0.014308987
0.14321251 0.19474277 -0.084613316
0.16381589 0.19473605 -0.081390016
0.18409808 0.19472508 -0.078232817
0.20829166 0.19961558 -0.056646638
-0.19775982 0.16223997 -0.24730113
-0.19774415 0.14588298 -0.30603281
-0.19626541 0.13664959 -0.33895859
-0.099535763 0.13247149 -0.33897099
-0.08210241 0.13171835 -0.33897349
-0.061822686 0.13084234 -0.33897635
-0.041606426 0.12996908 -0.33897915
0.015807284 0.12748893 -0.33898732
0.13192227 0.12247302 -0.33900383
-0.19781338 0.2165948 -0.0454452
-0.19778989 0.19187295 -0.13316201
-0.19775118 0.15102279 -0.27810475
-0.13202988 0.13104974 -0.33896127
-0.021638894 0.1263053 -0.33897647
-0.0015080383 0.12544005 -0.33897945
0.07271602 0.12224989 -0.33898994
0.09255328 0.12139732 -0.33899269
-0.19776393 0.16241053 -0.2288852
0.1490487 0.11619397 -0.33899543
0.16868915 0.11535412 -0.33899811
0.15345336 0.19469975 -0.063042752
0.17330761 0.19469208 -0.060095362
-0.19778372 0.18160844 -0.15370761
-0.18010008 0.12741025 -0.33894381
-0.16234338 0.12665488 -0.33894613
-0.19779433 0.19132575 -0.11270998
-0.19777523 0.17057821 -0.18378358
-0.19777159 0.16665347 -0.19722822
0.04410965 0.11505154 -0.3389692
0.10690062 0.11239408 -0.33897826
-0.19780509 0.20133571 -0.071631424
0.16654705 0.19465835 -0.042348918
-0.19775356 0.14265135 -0.26143274
-0.19773938 0.12700137 -0.31382534
0.15332642 0.19465026 -0.038171526
0.20828499 0.19628927 -0.024986442
-0.19781785 0.21225201 -0.022301255
-0.19712751 0.11657016 -0.33891889
-0.099026978 0.11248398 -0.33893183
-0.08134871 0.11174764 -0.33893415
-0.060784984 0.11089104 -0.33893713
0.0208205 0.10749157 -0.33894894
0.17815265 0.10093762 -0.33897182
-0.1319792 0.1109508 -0.33892176
-0.040513441 0.1071613 -0.33893433
-0.020037854 0.10631289 -0.33893737
0.00037278602 0.10546719 -0.33894035
0.072742917 0.10246868 -0.3389509
0.092860825 0.10163511 -0.33895376
0.13290726 0.099975899 -0.33895954
0.183851 0.19461408 -0.022315858
-0.19779859 0.18743299 -0.090711348
-0.19776987 0.15473856 -0.19652137
-0.19775788 0.14113745 -0.24053904
-0.19774435 0.12573814 -0.29037628
0.15300177 0.096289679 -0.33895692
0.15408882 0.19461523 -0.020586548
0.18893324 0.18205982 -0.056579404
-0.19780882 0.19744746 -0.051976554
-0.19778697 0.17238641 -0.13218509
-0.1807355 0.10710172 -0.3389037
-0.15972766 0.10624088 -0.3389065
-0.197823 0.21220626 0.00095164764
-0.19777881 0.16114224 -0.16068463
-0.19776209 0.14174171 -0.22209433
0.043727972 0.095001355 -0.33892944
0.10741368 0.092405729 -0.33893886
-0.1977344 0.10727952 -0.32196465
0.19566748 0.18239155 -0.036930855
-0.19779156 0.17234081 -0.11142372
-0.19774915 0.12234403 -0.26625875
-0.19772907 0.096208647 -0.33793351
-0.17072386 0.094818309 -0.33888164
-0.11048466 0.092404686 -0.33888981
-0.089532368 0.091565095 -0.33889267
-0.071627028 0.090847693 -0.33889505
-0.050800037 0.090013139 -0.33889815
0.014221696 0.087407611 -0.33890775
0.16820768 0.08123704 -0.33893064
0.18826987 0.080433093 -0.3389338
0.20828502 0.18463795 -0.017230807
-0.19780268 0.18208835 -0.06854587
-0.19775148 0.12070242 -0.25459436
-0.19773962 0.1064405 -0.29781935
-0.13192707 0.090273969 -0.33888099
-0.030248784 0.086223148 -0.33889529
-0.012470583 0.085514896 -0.33889791
0.072770603 0.082118712 -0.33891067
0.093177177 0.081305705 -0.33891365
0.12511341 0.080033235 -0.33891848
0.1541781 0.075939231 -0.33891693
0.040445883 0.077469729 -0.3388941
-0.19781469 0.19186887 -0.021598456
-0.19775806 0.12226684 -0.22593865
0.10501906 0.071955167 -0.33889785
0.19568338 0.15286206 -0.090954356
0.19567876 0.15840356 -0.074685447
-0.19779597 0.167163 -0.08779984
-0.19778396 0.15223306 -0.13117485
-0.19777547 0.14175622 -0.16161267
-0.046070553 0.074850224 -0.33886924
0.20414741 0.089993797 -0.26662216
0.20414381 0.094535664 -0.253427
0.20413692 0.10315843 -0.22837582
0.20413052 0.11121683 -0.20496413
0.1956989 0.13227108 -0.14474641
0.19569074 0.14214768 -0.11605261
-0.20834573 0.20235197 0.018431662
-0.19776817 0.13064185 -0.18657772
-0.19774459 0.10117875 -0.27128872
-0.19773193 0.085291706 -0.31696656
-0.19220541 0.077469669 -0.33884302
-0.15236878 0.075929128 -0.3388485
0.19550906 0.062474601 -0.3389
0.19574465 0.073454998 -0.30730256
0.19628961 0.077776723 -0.29481599
-0.19780655 0.17700215 -0.047452323
-0.13144523 0.072055213 -0.33884534
-0.11011964 0.07123556 -0.3388482
-0.091896318 0.070535116 -0.33885083
-0.070700295 0.06972044 -0.33885363
-0.01052102 0.067407094 -0.33886263
0.010409604 0.06660255 -0.33886579
0.057996292 0.064773254 -0.338873
0.12871915 0.062054597 -0.33888373
0.16378833 0.060706519 -0.33888903
0.18415628 0.059923492 -0.33889225
0.2041245 0.11482061 -0.18049298
-0.19781904 0.19124623 -0.0015972254
-0.19776024 0.11655024 -0.21197501
-0.19773723 0.087255679 -0.29448184
-0.031734906 0.065168761 -0.33885339
0.078721233 0.060948871 -0.33887008
0.19567113 0.16236722 -0.040655132
-0.1977887 0.15093958 -0.10872839
-0.19774936 0.10051019 -0.24931613
-0.17226663 0.067436986 -0.33882752
-0.19779883 0.16217552 -0.071433179
0.028028179 0.056767933 -0.33885035
-0.19775395 0.10200442 -0.22993848
-0.0051697004 0.054934405 -0.33883908
0.09958525 0.051007412 -0.33885524
0.20411889 0.11437969 -0.15503328
0.19568039 0.14229228 -0.073972337
-0.19781025 0.17215613 -0.027354833
-0.19777198 0.12165852 -0.16257487
-0.19776438 0.11155832 -0.1896207
-0.19774236 0.082378767 -0.26775631
-0.19772939 0.065213554 -0.31372061
-0.19616361 0.055790298 -0.33879945
-0.16502865 0.054638349 -0.33880386
-0.10627949 0.052464627 -0.3388122
-0.084768482 0.051668726 -0.33881518
0.16495438 0.042428013 -0.33885321
0.18263371 0.041773763 -0.33885601
0.20838206 0.042191025 -0.33519116
0.20415528 0.061917685 -0.28278479
0.20414759 0.072180532 -0.25530347
0.20414042 0.081735931 -0.22971639
0.2041162 0.11416903 -0.1428685
0.19566743 0.15963785 -0.021946846
0.19683552 0.16745405 -0.00090083468
-0.19779177 0.14602683 -0.091291361
-0.1977791 0.1291305 -0.13608871
-0.14688508 0.050807379 -0.33880028
-0.13448107 0.050351463 -0.33880201
-0.054428328 0.04740902 -0.33881328
-0.026947148 0.046398845 -0.33881733
0.012541989 0.044947203 -0.33882347
0.081817739 0.042400446 -0.33883426
0.11766578 0.041082647 -0.33883974
0.13862684 0.037208762 -0.33883688
0.19574998 0.04612359 -0.30996487
0.20413379 0.086496793 -0.20316884
0.19568491 0.1310109 -0.087112837
-0.19780289 0.15746325 -0.049775414
-0.19778414 0.13209377 -0.11572681
-0.19775833 0.097168401 -0.20651975
-0.19774722 0.082119279 -0.24564204
-0.19773482 0.065340482 -0.28926077
0.045660965 0.037464466 -0.33881614
0.20411108 0.11559667 -0.12077878
-0.19781484 0.17211054 -0.0065981736
0.030429747 0.034860637 -0.33880761
0.096943945 0.032464352 -0.33881792
-0.20834313 0.18150108 0.021407841
-0.19774957 0.080905758 -0.23410341
-0.19772391 0.045594539 -0.32412991
-0.061681125 0.034986373 -0.33878735
0.19567494 0.14118247 -0.044595238
-0.1964906 0.036569562 -0.3387616
-0.080570765 0.032451298 -0.33877829
0.13319823 0.024856117 -0.33881119
0.20415962 0.042318132 -0.28836253
0.20412765 0.086927228 -0.17572366
-0.19776048 0.091727547 -0.19278285
-0.15601841 0.031888362 -0.33876106
-0.1371567 0.031223025 -0.33876374
-0.12461254 0.030780431 -0.33876559
-0.096476614 0.029787984 -0.33876953
-0.031297974 0.027488705 -0.33877894
-0.0097173257 0.026727226 -0.3387824
0.04849619 0.024673369 -0.33879152
0.16036116 0.020726411 -0.33880922
0.17831761 0.020092873 -0.3388122
0.19575582 0.027437534 -0.31890747
0.20838736 0.018477289 -0.34020397
-0.19776841 0.10080929 -0.16357313
-0.19774006 0.060920082 -0.26238337
-0.19772963 0.046193566 -0.29886261
0.069808565 0.020720689 -0.3387886
0.2041247 0.087132446 -0.16264014
-0.19779481 0.13612477 -0.070517771
-0.19778736 0.12560223 -0.096336827
-0.19777577 0.10920416 -0.13657258
-0.1760104 0.026055153 -0.33874521
0.20415154 0.046657171 -0.25580916
0.20414777 0.052070938 -0.24252549
0.20414059 0.062337659 -0.21733412
-0.19775419 0.076428615 -0.21012166
0.0052305716 0.016507683 -0.33876559
0.2041087 0.10634722 -0.10373656
-0.20834614 0.17688321 0.037663933
-0.19780798 0.1515315 -0.022512553
-0.19774501 0.061137103 -0.24016854
-0.19772117 0.026829388 -0.32277647
-0.041537978 0.014852075 -0.33875188
0.085114129 0.010511159 -0.33877185
0.2041308 0.072371982 -0.18001328
0.20411374 0.097218677 -0.12018602
0.19566257 0.15066053 0.007800757
-0.19781603 0.16155818 0.0063965609
-0.19779904 0.13698967 -0.052209668
-0.19778101 0.11091281 -0.11441396
-0.19682612 0.016849486 -0.3387228
0.20416503 0.021909265 -0.29417464
-0.15582845 0.012126891 -0.33872226
-0.13672258 0.01148188 -0.33872512
-0.11450323 0.010731845 -0.3387284
-0.086046882 0.0097711971 -0.33873251
-0.017009782 0.0074405959 -0.3387427
0.032738175 0.0057608779 -0.33875057
0.15847997 0.0015152988 -0.33877078
0.17970219 0.00079867232 -0.33877441
0.2041191 0.085600935 -0.1364107
0.19567938 0.12205042 -0.050939135
0.19566922 0.13706701 -0.015450237
-0.19775201 0.064667128 -0.21114478
-0.19773249 0.03592762 -0.27843902
-0.067447849 0.0058235223 -0.33872876
0.054346528 0.0017428098 -0.33874759
0.072880708 0.0011217593 -0.33875051
0.1128546 -0.00021764633 -0.33875701
0.2083867 0.00072684878 -0.32906529
0.20413728 0.056591325 -0.19858721
-0.19777228 0.092436634 -0.14006947
-0.19776465 0.081186585 -0.16616987
-0.19773771 0.041310038 -0.25868466
-0.19772701 0.02549037 -0.29538682
-0.17608026 0.0061006835 -0.33870611
0.12522162 -0.0039165015 -0.33875242
0.20415561 0.027081605 -0.26075783
-0.0018971523 -0.0030215676 -0.33872536
0.19575505 0.0051268633 -0.30503461
0.2041278 0.066749237 -0.16273777
-0.19779055 0.11582105 -0.074947052
-0.19778751 0.1112566 -0.085344546
-0.1977153 0.0030623968 -0.33180496
-0.036703907 -0.0052288468 -0.33871356
0.088399239 -0.0093233576 -0.3387334
0.19567491 0.12185358 -0.031932231
-0.19774278 0.041971739 -0.23632678
0.20415176 0.026095059 -0.24277511
0.20414431 0.037475314 -0.21708593
-0.20834048 0.15688306 0.026725765
-0.19781046 0.14246239 -0.0047770138
-0.19780309 0.13127165 -0.029810842
-0.19775648 0.06058865 -0.18792912
-0.19772144 0.0071870377 -0.30738881
-0.15563345 -0.0081541231 -0.33868232
-0.13627708 -0.0087773791 -0.3386853
-0.11697823 -0.0093989065 -0.33868822
-0.094535232 -0.010121553 -0.33869156
-0.018173801 -0.012580423 -0.33870301
0.019670216 -0.013799099 -0.33870891
0.15039039 -0.018009184 -0.33873031
0.16884775 -0.018603681 -0.33873346
0.19031368 -0.019295124 -0.33873716
0.20414077 0.040702935 -0.20352432
0.20411129 0.086229585 -0.10168092
-0.1977777 0.090871476 -0.11450695
-0.066097327 -0.014444677 -0.33868906
0.04785708 -0.018084316 -0.33870694
0.069781922 -0.01878464 -0.3387104
0.11030103 -0.020079045 -0.33871719
0.204164 0.0025241671 -0.28197417
0.20411643 0.076333068 -0.11834316
0.19566606 0.13197869 0.0044260318
-0.19776677 0.072080754 -0.15019052
-0.19772996 0.015373288 -0.27478632
-0.19772436 0.0067515066 -0.29372981
-0.17615193 -0.014381496 -0.33866575
0.12904315 -0.024048533 -0.33871368
0.19576125 -0.014949618 -0.31408855
0.20839225 -0.024439093 -0.33406195
0.20413412 0.046837952 -0.17774652
0.20412201 0.065812342 -0.13605647
-0.19779642 0.11598034 -0.048697583
-0.19776078 0.06079682 -0.16886817
-0.19774525 0.036756363 -0.22121993
-0.19773532 0.021286456 -0.254908
0.0034835036 -0.023490068 -0.33868614
0.19568497 0.10004105 -0.056556933
-0.19774996 0.04182693 -0.20377883
-0.057377655 -0.025029089 -0.3386701
-0.044548728 -0.025428619 -0.33867213
0.085493334 -0.029478427 -0.33869281
0.20828503 0.13190286 0.017872719
-0.19752397 -0.024168488 -0.33864191
-0.086689182 -0.027590092 -0.3386589
0.19610827 -0.015720932 -0.29463145
0.20415582 0.0060731759 -0.24747416
-0.19778763 0.096934214 -0.074370079
-0.19774051 0.022411374 -0.23240569
-0.16198425 -0.028775033 -0.33864042
-0.14235097 -0.029375818 -0.33864346
-0.11952022 -0.030074503 -0.33864698
-0.019369097 -0.033139255 -0.33866236
0.018985284 -0.0343129 -0.33866826
0.14519936 -0.038175967 -0.3386893
0.17325637 -0.03903481 -0.33869413
0.194993 -0.039700206 -0.338698
0.2041481 0.016137032 -0.21969268
-0.19782342 0.15200548 0.046526965
-0.19775452 0.042442229 -0.18378828
-0.19771861 -0.014689712 -0.3038865
-0.1977125 -0.024498787 -0.32450643
0.038003728 -0.038365897 -0.3386645
0.060255338 -0.03904089 -0.3386682
0.20413104 0.041508462 -0.16018914
0.19567902 0.10044862 -0.036824998
-0.19780572 0.12225743 -0.011405586
-0.19777434 0.072025053 -0.1160823
-0.19772734 -0.0032397206 -0.27292272
-0.18613002 -0.035115089 -0.3386229
0.10776019 -0.043949541 -0.33866939
0.12981957 -0.044612702 -0.33867308
0.20414092 0.023333399 -0.19243708
0.20411403 0.067320548 -0.10077445
-0.19780059 0.11236127 -0.027306911
0.0025745814 -0.044298913 -0.33864507
0.20839801 -0.05072137 -0.33928022
0.20412497 0.047332458 -0.1369779
0.20411928 0.056669466 -0.11768936
-0.19781624 0.13600962 0.025785591
-0.19779222 0.097115293 -0.053870194
-0.19778295 0.082049154 -0.08472573
-0.19776301 0.049699329 -0.15097837
-0.19774543 0.021276323 -0.20918891
-0.19773285 0.00083607424 -0.25105068
-0.065632649 -0.045813497 -0.33862755
0.082507871 -0.050185584 -0.33865133
0.19576751 -0.043788757 -0.3187227
0.19567299 0.10580979 -0.012343941
-0.12828209 -0.047543965 -0.33861074
-0.11181873 -0.048025332 -0.33861336
-0.092117734 -0.048601292 -0.33861646
0.20415999 -0.014760939 -0.25236389
0.19568743 0.082426809 -0.055529408
0.20829126 0.11343025 0.0081681004
-0.16518927 -0.050070696 -0.33859786
-0.14528123 -0.050647162 -0.33860096
-0.049910817 -0.053408973 -0.33861592
-0.030353419 -0.053975306 -0.33861902
0.0085840737 -0.055102848 -0.33862504
0.13352194 -0.058721535 -0.33864602
0.15252785 -0.059272043 -0.3386493
0.165167 -0.059638135 -0.33865151
0.19351326 -0.060459338 -0.33865663
0.19807692 -0.038700189 -0.29458788
0.20416427 -0.024246212 -0.26513663
0.20415202 -0.0037425752 -0.22386143
-0.19775017 0.022352247 -0.18866691
-0.19773813 0.0024436412 -0.22840306
-0.19772173 -0.024638381 -0.28245673
-0.19771577 -0.03456467 -0.30226883
-0.19770946 -0.044997778 -0.32309255
0.027867649 -0.059229515 -0.33862111
0.050455775 -0.059877478 -0.33862486
-0.19777794 0.06634485 -0.095651433
0.098654836 -0.064824872 -0.33862612
0.20413762 0.016052632 -0.17265485
0.19568361 0.081170373 -0.044258531
-0.19780947 0.11711879 0.0091261854
-0.19777082 0.052478574 -0.11771606
-0.014682556 -0.065218173 -0.33860025
0.066522144 -0.067501836 -0.33861348
-0.19775899 0.030585703 -0.15500401
-0.19763552 -0.063754253 -0.33856407
0.20839734 -0.069403283 -0.32762679
-0.19780202 0.10133468 -0.012894033
-0.19779663 0.092195891 -0.030526932
-0.19774319 0.0017489789 -0.2050406
-0.19773035 -0.020054935 -0.24711034
-0.17129155 -0.068177484 -0.33856091
-0.15113822 -0.06873282 -0.33856413
-0.13104713 -0.069286488 -0.33856747
-0.11101794 -0.069838367 -0.33857056
-0.091050468 -0.070388548 -0.33857372
0.095617861 -0.075532489 -0.33860412
0.16942513 -0.077566825 -0.33861712
0.18853906 -0.07809376 -0.33862063
0.2041312 0.020835726 -0.14691059
0.20412241 0.036330637 -0.11701374
0.20411697 0.045873519 -0.098601148
0.19567694 0.087485991 -0.018757699
-0.20834194 0.13215332 0.049920075
-0.19777973 0.061720513 -0.084295027
-0.19770636 -0.063396297 -0.32368699
-0.071472235 -0.074606441 -0.33856967
-0.051581006 -0.075148933 -0.33857289
-0.031750888 -0.075689606 -0.33857599
0.037177198 -0.077569328 -0.33858702
0.12794279 -0.080045097 -0.33860263
0.15043376 -0.080658548 -0.33860651
0.19576664 -0.064736925 -0.30578414
0.19680199 -0.058892094 -0.29454699
0.20415613 -0.024414863 -0.22819647
0.20414467 -0.0046018953 -0.19028738
0.19566306 0.11237775 0.033097681
-0.19778939 0.076335214 -0.051592581
-0.19774567 0.0014133154 -0.19375154
-0.19771896 -0.044366207 -0.28061506
-0.19771285 -0.054905795 -0.30061308
-0.18595551 -0.075212501 -0.3385441
0.20840378 -0.086396359 -0.33963642
0.20416889 -0.049073689 -0.26903436
0.195673 0.091413252 -0.0028997061
-0.19781415 0.11722164 0.030026194
-0.19775258 0.011120378 -0.16962491
-0.19773574 -0.017944334 -0.22431615
0.010730251 -0.084208451 -0.33856824
0.20416449 -0.043797698 -0.25283954
0.20415218 -0.022185085 -0.21217105
0.19568987 0.062460206 -0.053315036
-0.19777457 0.047078483 -0.096881136
-0.19776322 0.027345177 -0.13370667
-0.07915578 -0.085540287 -0.33854648
0.059914995 -0.089213036 -0.33856913
0.079538472 -0.089731358 -0.33857247
-0.14695719 -0.087518089 -0.33852819
-0.12664795 -0.08804851 -0.33853146
-0.10640204 -0.088577323 -0.33853474
0.20412843 0.015975593 -0.1300628
-0.19775702 0.01237577 -0.1506
-0.19772495 -0.043971058 -0.25403228
-0.19771297 -0.065018021 -0.29266694
-0.17471194 -0.090586923 -0.33851615
-0.0062911427 -0.094936863 -0.33854356
0.013627267 -0.09545134 -0.33854684
0.11882555 -0.098168805 -0.33856472
0.13835871 -0.098673478 -0.33856818
0.15783207 -0.099176601 -0.33857164
0.18047577 -0.099761799 -0.33857593
0.2041603 -0.043524411 -0.23422387
0.20413785 -0.0032552178 -0.16030423
-0.19776912 0.031588878 -0.1101958
-0.19774093 -0.018179921 -0.20080701
-0.1977032 -0.084871434 -0.3222284
0.033397391 -0.099712506 -0.33854273
0.19577341 -0.090174399 -0.31365427
0.20414849 -0.024571832 -0.19382575
-0.1978236 0.12632959 0.065965079
-0.19780721 0.097175553 0.01331809
-0.19773056 -0.038891818 -0.23239544
0.10264878 -0.10522874 -0.33854702
0.19577976 -0.083178662 -0.29449806
0.20412003 0.025638368 -0.097612187
0.19568117 0.066366516 -0.024446663
0.20829077 0.091990761 0.022399543
-0.19779949 0.081831507 -0.010109304
-0.19779398 0.071881168 -0.027932163
-0.19778483 0.055616878 -0.057064347
-0.19777645 0.040663209 -0.083848946
-0.057254937 -0.1050045 -0.33851281
-0.037038602 -0.10550879 -0.33851615
-0.016885476 -0.10601155 -0.33851942
0.053157028 -0.10775889 -0.33853105
0.073029406 -0.1082546 -0.33853427
0.20413168 0.0021625755 -0.13491844
-0.19781752 0.11246534 0.048549436
-0.19775049 -0.0078563979 -0.16522561
-0.1977192 -0.064094923 -0.26514426
-0.19769634 -0.10526754 -0.33829537
-0.10849716 -0.10757144 -0.33849689
0.19578083 -0.10857023 -0.32699558
0.20417376 -0.077542745 -0.27150223
0.20415238 -0.038373079 -0.20190975
-0.18109186 -0.10966678 -0.33847734
-0.16039011 -0.11017098 -0.33848074
-0.13975395 -0.11067344 -0.33848414
0.14243099 -0.11754571 -0.33853176
0.15884189 -0.11794551 -0.3385348
0.17847915 -0.11842401 -0.33853856
0.2041647 -0.063418619 -0.24049875
0.19566198 0.10071181 0.048401944
-0.1977634 0.011123179 -0.12117289
-0.19775279 -0.0080770543 -0.15473936
-0.19773601 -0.038643029 -0.20817569
-0.19772221 -0.063650601 -0.25189462
-0.19769995 -0.10422431 -0.32282695
-0.092242487 -0.11570694 -0.33848444
0.022896687 -0.11847635 -0.33850357
0.1228029 -0.12087961 -0.3385208
0.20414156 -0.022525458 -0.16316603
0.20412582 0.0072395494 -0.11112992
0.19569235 0.041820969 -0.051026039
-0.19770674 -0.094469294 -0.29921755
-0.19774358 -0.029408809 -0.18080561
-0.021319294 -0.12517758 -0.33848092
-0.00097900245 -0.12565453 -0.3384842
0.19566406 -0.13026692 -0.3385193
0.19577268 -0.10906096 -0.30203149
0.20416923 -0.079122804 -0.25018772
0.2041605 -0.062783681 -0.22207776
0.19568567 0.04744827 -0.032771941
0.19567586 0.068319492 0.0031350846
-0.19777997 0.035643782 -0.064259343
-0.19777115 0.019302515 -0.092149548
-0.19771002 -0.093606912 -0.28485534
-0.19749011 -0.12500979 -0.33844361
0.039435357 -0.13049375 -0.33848342
0.059631791 -0.13096119 -0.33848682
0.20414886 -0.042762246 -0.18226849
-0.19782169 0.11125472 0.068343036
-0.1978109 0.091124319 0.034258183
-0.19780354 0.077494733 0.011180519
-0.1977955 0.062485687 -0.014232812
-0.19778962 0.05160629 -0.032653924
-0.19773079 -0.057688348 -0.21771196
-0.19771637 -0.08448451 -0.26308337
-0.18412986 -0.12929715 -0.33843794
-0.15620358 -0.12993498 -0.33844265
-0.13533726 -0.13041161 -0.33844623
-0.12492917 -0.13064931 -0.33844796
-0.042261019 -0.13253756 -0.33846191
0.079785757 -0.13532521 -0.33848247
0.099902719 -0.13578476 -0.33848605
0.17643461 -0.13753362 -0.33850023
0.20413515 -0.018492786 -0.1358708
-0.19770353 -0.11105607 -0.30158529
-0.19769658 -0.1240664 -0.3234404
-0.094200045 -0.13532059 -0.3384454
-0.066592045 -0.13594268 -0.33845004
0.01892926 -0.13786991 -0.33846453
0.12007248 -0.14014928 -0.33848193
0.14011024 -0.14060105 -0.33848575
0.16008507 -0.14105146 -0.33848956
0.19578008 -0.1279407 -0.31512031
0.20417878 -0.10467245 -0.27571675
0.19566672 0.081927709 0.037422474
0.20829442 0.071507148 0.0203934
-0.1977594 -0.0087113073 -0.1245998
-0.19774844 -0.029383149 -0.15905152
-0.19773872 -0.047600649 -0.18941274
0.20417401 -0.098052248 -0.25867656
0.2041567 -0.064540617 -0.20282599
-0.015555339 -0.14503963 -0.33844307
0.20416497 -0.083109699 -0.22811428
0.20413221 -0.018660067 -0.12154572
0.19567902 0.051929794 -0.0051277871
-0.19772537 -0.077623986 -0.22769418
-0.19770695 -0.1125444 -0.28498372
-0.19722126 -0.1451164 -0.33840415
0.035647027 -0.15014781 -0.33844391
0.062898181 -0.15073664 -0.33844855
0.19578786 -0.14774223 -0.32884821
0.20412336 -0.0032277103 -0.091464452
0.19569512 0.022317706 -0.049852125
-0.1977749 0.014562098 -0.07185369
-0.19776554 -0.0033027823 -0.10093372
-0.19771345 -0.10283555 -0.26295075
-0.17662525 -0.14963277 -0.33839968
-0.15544339 -0.15008391 -0.33840331
-0.14487821 -0.15030874 -0.33840504
-0.11678824 -0.15090694 -0.33840987
-0.040162876 -0.15253855 -0.33842304
-0.0021886078 -0.15334721 -0.33842954
0.083290376 -0.15516736 -0.33844426
0.19649662 -0.13051178 -0.29440555
-0.19770028 -0.13070603 -0.30192557
-0.19769312 -0.14441659 -0.32406971
-0.096205175 -0.1554109 -0.33840546
-0.075233586 -0.15585084 -0.33840904
-0.064773224 -0.15607037 -0.33841088
0.018304328 -0.15781327 -0.33842513
0.10371503 -0.15960522 -0.33843991
0.12404475 -0.16003187 -0.33844361
0.14430977 -0.16045721 -0.33844748
0.16451049 -0.1608813 -0.3384513
0.18464713 -0.16130401 -0.33845529
0.20416954 -0.099246904 -0.23756674
0.20414211 -0.044498887 -0.14914243
-0.19781439 0.08686804 0.053079061
-0.19780613 0.070992731 0.027637538
-0.19774379 -0.049380623 -0.16527109
-0.19773369 -0.068929754 -0.19660023
0.20841594 -0.16589464 -0.33861616
0.20416102 -0.084531806 -0.20836404
0.20415308 -0.068564288 -0.18277477
0.19568801 0.026831802 -0.03017151
-0.19778667 0.031531271 -0.031357463
-0.19778182 0.022159694 -0.046259996
-0.19775312 -0.033608641 -0.1349424
-0.19771965 -0.098513797 -0.23815414
-0.027035989 -0.16500844 -0.33840141
-0.0061877174 -0.16543259 -0.33840492
0.204179 -0.12306 -0.26425323
-0.19773634 -0.068455063 -0.18492852
-0.19694586 -0.16570802 -0.33836374
0.035220936 -0.17035808 -0.33840403
0.055918161 -0.17077263 -0.33840761
0.19577919 -0.15016557 -0.30149487
0.20413564 -0.037606683 -0.1236202
0.19567816 0.04615083 0.0082788756
-0.20834546 0.10147278 0.086190574
-0.19776951 -0.0057616527 -0.081394069
-0.17610106 -0.17029579 -0.33835921
-0.15466484 -0.17071833 -0.3383629
-0.12619257 -0.17127939 -0.33836773
0.08344128 -0.17541112 -0.33840439
0.19250175 -0.17756166 -0.33842501
-0.1978199 0.091382675 0.074108265
-0.19776167 -0.023197798 -0.10392617
-0.19774629 -0.053527437 -0.15105216
-0.19772835 -0.088870518 -0.20596799
-0.19771366 -0.11791687 -0.25110009
-0.19769691 -0.15085198 -0.30227438
-0.094716027 -0.17606421 -0.33836505
0.014181824 -0.1781754 -0.33838418
0.10411336 -0.17991902 -0.33839998
0.12468815 -0.18031789 -0.33840361
0.14519677 -0.18071575 -0.33840755
0.16563946 -0.18111242 -0.3384116
0.19578709 -0.16769685 -0.31666347
0.20416552 -0.10287185 -0.21568695
0.20414592 -0.06270995 -0.15328364
0.20412655 -0.023023842 -0.091619603
0.20618074 0.076630227 0.063285314
-0.19779281 0.036353882 -0.0073828688
-0.19770725 -0.13315602 -0.2687526
-0.10934563 -0.17996986 -0.33835426
0.19570191 -0.0034444327 -0.057251029
0.19569042 0.012800155 -0.032203373
0.19568118 0.032260146 -0.002197772
0.19566853 0.061402939 0.042738017
-0.19774152 -0.067538224 -0.16238366
-0.19773118 -0.088147037 -0.19391838
-0.070659675 -0.18490465 -0.33835289
-0.04941446 -0.18530275 -0.33835658
-0.031763382 -0.18563356 -0.33835968
-0.010645802 -0.18602933 -0.3383635
-0.19780262 0.052197777 0.024576481
-0.19777693 0.0009254216 -0.053281717
-0.19768979 -0.17352809 -0.31819341
-0.15691006 -0.18753433 -0.3383294
-0.13532808 -0.18793166 -0.33833304
0.027785379 -0.19093513 -0.33836195
0.048759591 -0.19132137 -0.3383657
0.19708098 -0.15722556 -0.28246889
0.20417471 -0.12896053 -0.23935035
0.20417009 -0.1194451 -0.22490099
0.20415747 -0.093042247 -0.18480758
-0.1978101 0.065526567 0.048369728
-0.1977533 -0.048467927 -0.12342088
-0.19772284 -0.10975327 -0.21577826
-0.19770403 -0.1475835 -0.27278873
-0.19769348 -0.1688071 -0.30477294
-0.19733335 -0.19106996 -0.33831379
-0.17556402 -0.19146359 -0.33831754
0.069662519 -0.19589877 -0.33836117
0.15968972 -0.19752735 -0.3383778
0.18028557 -0.19790018 -0.33838192
0.20416155 -0.10393567 -0.19612899
-0.19778381 0.010764151 -0.030016657
0.013482692 -0.1991142 -0.33834288
0.090599559 -0.20048356 -0.33835658
0.10799716 -0.20079249 -0.33835974
0.12881179 -0.2011621 -0.3383635
0.20413926 -0.059419028 -0.12438224
-0.19780533 0.052495949 0.036025997
-0.19774659 -0.066662423 -0.14084427
-0.19772585 -0.10875799 -0.20332798
-0.11520219 -0.20112437 -0.33831152
0.20414995 -0.083912097 -0.15612571
0.20413293 -0.047944836 -0.10273843
0.19567439 0.041512396 0.029829379
-0.19781594 0.072472118 0.069045417
-0.19779743 0.034698453 0.013398705
-0.19778867 0.016800104 -0.012968419
-0.19773676 -0.089035265 -0.1688811
-0.19771709 -0.12917067 -0.22800693
-0.19771083 -0.141948 -0.24683008
-0.19768615 -0.19227654 -0.32097217
-0.10000241 -0.20125955 -0.33176348
-0.082057454 -0.20126307 -0.33132014
0.19578634 -0.18772691 -0.30443278
0.19720981 -0.15727068 -0.25952998
0.19569714 -0.0091400137 -0.041345473
0.027769908 -0.20129728 -0.32241705
0.048604432 -0.20130146 -0.32191637
0.069344573 -0.20130563 -0.32141802
0.12078623 -0.20131588 -0.32018188
0.137805 -0.20131928 -0.31977299
0.15814355 -0.20132345 -0.31928429
0.17839108 -0.20132744 -0.31879768
0.19578204 -0.17809363 -0.28440413
0.20416604 -0.12270479 -0.20321515
-0.19777374 -0.017733483 -0.055222385
-0.19776012 -0.045779224 -0.095921263
-0.19770099 -0.1676466 -0.27277067
-0.1342416 -0.2012772 -0.32007387
-0.056004379 -0.20129281 -0.3182461
-0.034893893 -0.20129699 -0.31775287
-0.006895802 -0.20130259 -0.31709883
0.013991693 -0.20130658 -0.31661078
0.089775525 -0.20132166 -0.31484029
0.20418032 -0.15472682 -0.24451736
0.20415388 -0.098921672 -0.16353498
0.20414646 -0.082967989 -0.14038353
0.19570498 -0.024769511 -0.056127064
0.20407851 0.057346664 0.063235901
-0.19782035 0.076790981 0.085169248
-0.19776626 -0.035277721 -0.076246433
-0.17993844 -0.20128036 -0.31493679
-0.1619556 -0.20128387 -0.31452855
0.19568567 0.0069244793 -0.006417512
-0.19775163 -0.067964695 -0.11858438
-0.19773184 -0.10917269 -0.17749529
-0.19769408 -0.18773127 -0.28980276
-0.11117135 -0.20130593 -0.30727753
-0.090019561 -0.20131004 -0.30681118
0.00053931022 -0.2013278 -0.30481467
0.11296973 -0.20134985 -0.30233601
0.13311726 -0.20135379 -0.30189177
0.20417066 -0.13971709 -0.21218887
-0.19773974 -0.09510614 -0.15240233
-0.19772352 -0.1290933 -0.20062932
-0.19771449 -0.14800264 -0.22746125
-0.19770806 -0.16141863 -0.24649838
-0.14212832 -0.20131177 -0.30190173
-0.071873315 -0.20132548 -0.30039832
-0.051002238 -0.20132953 -0.29995176
-0.03022483 -0.20133358 -0.29950717
0.017894911 -0.20134294 -0.29847744
0.038364522 -0.20134693 -0.29803941
0.058743145 -0.20135087 -0.29760334
0.15265779 -0.20136917 -0.29559371
0.17253205 -0.20137304 -0.29516843
0.20416211 -0.12340777 -0.18385093
0.19567023 0.040263858 0.048213385
-0.19781058 0.051507674 0.059032373
-0.092146091 -0.20133322 -0.29486522
0.19577609 -0.17983218 -0.25852671
0.20414315 -0.084272943 -0.12375818
0.20413645 -0.069611125 -0.1031075
0.19567852 0.02119085 0.024606671
-0.20834671 0.082153283 0.10502131
-0.19780187 0.031482484 0.034395602
-0.19778438 -0.0056052203 -0.017454801
-0.19777764 -0.01981893 -0.037326213
-0.19769801 -0.18821537 -0.27275261
-0.1613213 -0.20133156 -0.29034814
-0.11927934 -0.20133966 -0.28950223
0.075374208 -0.20137703 -0.28558549
0.13846551 -0.20138919 -0.28431609
0.15820834 -0.20139301 -0.28391883
-0.19771783 -0.14895888 -0.21247599
-0.1813471 -0.2013393 -0.28484336
-0.059837494 -0.20136255 -0.28247491
-0.039322406 -0.20136648 -0.28207508
0.018313522 -0.20137745 -0.28095153
0.038484417 -0.20138133 -0.28055844
0.10508579 -0.20139408 -0.27926019
0.180491 -0.20140845 -0.2777904
0.1957808 -0.19771922 -0.27236864
0.19577093 -0.17345716 -0.23869929
0.19745249 -0.15735562 -0.21632126
0.20415047 -0.10460247 -0.14298098
0.19569294 -0.01838514 -0.023500379
-0.19779222 0.0073016873 0.0081183901
-0.19777055 -0.039047685 -0.055728905
-0.19774733 -0.088510953 -0.12386571
-0.1418843 -0.20135844 -0.27824798
-0.02196102 -0.20138115 -0.27598515
-0.0017109846 -0.20138496 -0.27560297
0.058509361 -0.20139641 -0.27446684
0.0784081 -0.20140022 -0.27409133
0.20416661 -0.14260884 -0.19069859
0.19570826 -0.044882383 -0.05623918
0.19568504 0.0014875231 0.0076363971
-0.19775428 -0.07599815 -0.10207663
-0.1977296 -0.1290196 -0.17457859
-0.12028572 -0.20137376 -0.27208343
0.2041544 -0.11768617 -0.15164243
0.1956998 -0.034085121 -0.037481483
-0.19781865 0.060621284 0.08787816
-0.19776081 -0.064255141 -0.081627898
-0.19771187 -0.1698143 -0.22491297
-0.19770534 -0.18396021 -0.24411443
-0.16071129 -0.20137739 -0.26709464
-0.10239914 -0.20138836 -0.26606598
-0.081991322 -0.20139217 -0.26570597
-0.021301256 -0.20140356 -0.26463541
-0.0012470892 -0.20140725 -0.26428166
0.10099295 -0.20142645 -0.26247808
0.12051961 -0.20143008 -0.26213357
0.16254151 -0.20143801 -0.26139238
0.17539327 -0.20144045 -0.26116571
0.20417012 -0.15751232 -0.20102277
0.19567424 0.022067307 0.042586353
-0.13914211 -0.20139259 -0.2610549
-0.061152104 -0.20140713 -0.25972643
-0.041020475 -0.20141089 -0.25938347
0.018853048 -0.20142204 -0.25836357
0.038638964 -0.20142561 -0.25802645
0.13952352 -0.20144451 -0.25630799
0.20407791 0.045937505 0.078149252
-0.19780605 0.030026551 0.053144328
-0.19772427 -0.14839073 -0.18551396
-0.17925587 -0.20139623 -0.25610861
-0.10096668 -0.20141065 -0.25482187
-0.080757745 -0.20141435 -0.25448969
0.058284421 -0.2014401 -0.25220457
0.20416261 -0.14294834 -0.17152958
-0.19779824 0.011130839 0.031402018
-0.19778146 -0.02552047 -0.017267464
-0.19777451 -0.040753361 -0.037495371
-0.12045896 -0.20141804 -0.24960056
0.077661984 -0.2014544 -0.24646214
0.20414358 -0.10204257 -0.11241733
0.20413685 -0.086756371 -0.092118733
-0.19778802 -0.013149498 0.0028941927
-0.19776709 -0.059183292 -0.057790451
-0.19775899 -0.077060394 -0.081357114
-0.19773804 -0.12322958 -0.1422203
-0.17029469 -0.20141977 -0.24487087
-0.1499757 -0.20142335 -0.24456087
-0.020019108 -0.20144713 -0.24257872
-0.00034550202 -0.20145071 -0.24227872
0.03550566 -0.2014572 -0.24173185
0.09997943 -0.201469 -0.24074849
0.1191451 -0.20147252 -0.24045631
0.16039534 -0.20148003 -0.23982701
0.17930788 -0.20148349 -0.23953864
0.1957566 -0.15839846 -0.18248604
0.19568083 0.0012499093 0.027972456
0.20408647 0.021989999 0.055443756
-0.19774555 -0.10902642 -0.11888151
-0.19772734 -0.14930691 -0.17159711
-0.19771858 -0.16870244 -0.19698021
-0.19770913 -0.18959063 -0.22431681
-0.18956673 -0.20142716 -0.23968604
-0.062417988 -0.20145005 -0.23782066
-0.039370276 -0.20145428 -0.2374827
0.019372379 -0.20146489 -0.23662087
0.13780722 -0.20148635 -0.23488358
0.19576956 -0.1949268 -0.22543487
0.19576499 -0.18309583 -0.20995161
0.20415096 -0.12305902 -0.13125549
0.19571163 -0.06573125 -0.056355409
0.19569553 -0.039345469 -0.021824179
-0.20834409 0.061823837 0.10751636
-0.19781227 0.036997344 0.075411431
-0.19775261 -0.095733628 -0.09703885
-0.19773297 -0.13945447 -0.15384303
-0.10149485 -0.20145351 -0.23301682
-0.081658177 -0.20145714 -0.23273733
0.20415883 -0.14327563 -0.15305029
0.19570297 -0.054063194 -0.037261959
0.2040796 0.034739699 0.07823544
-0.13057072 -0.20145881 -0.22808239
0.058014918 -0.20149261 -0.22553292
0.080261327 -0.2014966 -0.22523215
0.12443113 -0.20150447 -0.22463498
0.19568989 -0.025278684 0.0036543305
-0.19780256 0.011787353 0.049419992
-0.19777124 -0.058569096 -0.040677126
-0.19772185 -0.16938443 -0.18258522
-0.17954406 -0.20146066 -0.22342202
-0.1595588 -0.20146412 -0.22316304
-0.054392178 -0.20148277 -0.22180083
-0.012339773 -0.20149028 -0.22125623
0.029332463 -0.20149761 -0.22071639
0.099002987 -0.20151007 -0.21981409
0.15522414 -0.20152014 -0.2190859
0.18307528 -0.20152509 -0.21872517
-0.19780765 0.021610675 0.065243773
-0.1977943 -0.0085152676 0.026942369
-0.19776346 -0.078078382 -0.061498575
-0.034559123 -0.20149654 -0.21635148
0.010313637 -0.20150447 -0.21579543
0.079954244 -0.20151669 -0.21493253
0.13925508 -0.20152724 -0.21419784
0.19575177 -0.16034438 -0.16112588
0.2041475 -0.12370788 -0.11444102
-0.19777854 -0.046150293 -0.01707351
-0.19771598 -0.18795705 -0.1960701
-0.14120576 -0.20148796 -0.21246842
-0.11177345 -0.20149308 -0.21212003
-0.066356488 -0.20150101 -0.21158263
0.048422288 -0.20152122 -0.21022436
0.19575982 -0.1846294 -0.1871262
0.20414056 -0.10958345 -0.092297547
-0.1977853 -0.032820072 0.0034298594
-0.19775741 -0.096383229 -0.07622879
-0.19774838 -0.11683302 -0.10185687
-0.19774361 -0.12773935 -0.11552493
-0.091615118 -0.20150679 -0.20675156
0.11994572 -0.20154369 -0.20436481
0.19567598 -0.00062507385 0.048302494
-0.19781812 0.040481266 0.098280028
-0.19773073 -0.15959843 -0.1506723
-0.18191324 -0.20150125 -0.20263752
-0.014430324 -0.20153016 -0.20083943
0.023374463 -0.20153672 -0.20043352
0.098061636 -0.20154971 -0.19963178
0.1593792 -0.20156038 -0.19897357
0.17761379 -0.20156354 -0.19877782
0.1957553 -0.17853262 -0.16992252
0.20415519 -0.14831449 -0.13223098
0.19571517 -0.087357186 -0.05647599
0.19570637 -0.072763942 -0.038318153
0.19568542 -0.023008792 0.023590442
-0.19778852 -0.029179331 0.015182344
-0.19771932 -0.1884014 -0.18151931
-0.16456926 -0.20151418 -0.1973739
-0.052097004 -0.20153344 -0.19622722
-0.029925741 -0.20153725 -0.19600126
0.073181547 -0.20155507 -0.19495031
0.13760525 -0.20156622 -0.19429365
0.19569299 -0.048192255 -0.0042114849
-0.19776781 -0.079055034 -0.042448696
-0.13455684 -0.20152915 -0.19205198
-0.10569096 -0.20153409 -0.19177321
-0.070651777 -0.20154005 -0.19143483
0.045296267 -0.20156002 -0.19031522
0.19569825 -0.062975667 -0.01884353
0.20830622 -0.017788617 0.036707368
-0.19773896 -0.14822073 -0.12273495
-0.1977254 -0.17965831 -0.16102229
-0.08594396 -0.20154715 -0.18663727
0.11258131 -0.201581 -0.184826
-0.19780029 -0.0075191548 0.051919274
-0.15208264 -0.20154572 -0.18230461
-0.019557202 -0.20156801 -0.18116514
0.017620599 -0.20157439 -0.1808456
0.085007407 -0.20158583 -0.18026631
0.1633831 -0.20159912 -0.17959253
0.17532152 -0.20160115 -0.17949001
0.19575064 -0.1776212 -0.15031247
0.20408653 0.0029017029 0.068057887
0.20407654 0.027384844 0.097663984
-0.19778068 -0.055277191 -0.0021559296
-0.19776203 -0.099048391 -0.054711275
-0.047218028 -0.20157284 -0.1765651
-0.00071971485 -0.2015807 -0.17618977
0.19569017 -0.043368664 0.015398858
-0.20834722 0.05122786 0.12838106
-0.19781403 0.021207092 0.092671983
-0.19777371 -0.073704146 -0.020480929
-0.19774659 -0.13760097 -0.096658573
-0.1821188 -0.20156002 -0.17278944
-0.1218424 -0.20156991 -0.1723337
-0.074799754 -0.20157778 -0.17197834
0.039235063 -0.20159686 -0.17111669
0.14455639 -0.20161444 -0.17032097
0.2041509 -0.15317942 -0.11211453
-0.19775577 -0.11818434 -0.069369547
-0.1977341 -0.16963173 -0.13027231
-0.10230267 -0.20158249 -0.16740446
0.060434002 -0.20160955 -0.1662585
0.19571884 -0.10980438 -0.0566011
-0.19780447 -0.0047866995 0.068027966
-0.19778587 -0.049108647 0.015929727
-0.19772296 -0.19854319 -0.15972291
-0.16113126 -0.20158237 -0.16304921
-0.024510734 -0.20160472 -0.16215639
0.01509502 -0.20161128 -0.16189764
0.078360669 -0.20162171 -0.16148441
0.099256098 -0.20162517 -0.16134779
0.15843366 -0.201635 -0.16096126
0.17896451 -0.2016384 -0.1608272
0.19570957 -0.09621866 -0.036798712
0.19569559 -0.06782686 -0.0034255977
-0.19779499 -0.029147293 0.042726036
-0.14142692 -0.20159477 -0.15820174
0.0031353119 -0.20161849 -0.15733032
0.11973983 -0.20163763 -0.15662734
0.19574626 -0.1791711 -0.12993191
0.19570105 -0.083521508 -0.018291352
0.20407979 0.012040732 0.093299709
-0.19774206 -0.15805037 -0.10336773
-0.19772886 -0.18966854 -0.14001285
-0.1812041 -0.20159769 -0.15374421
-0.10034114 -0.20161062 -0.15329693
-0.05737396 -0.2016176 -0.15305929
-0.036038779 -0.20162112 -0.15294145
0.13995576 -0.20164984 -0.15196852
0.20409144 -0.020749269 0.058060609
-0.19774933 -0.1428953 -0.081603877
-0.12123585 -0.20161635 -0.14878498
-0.081317328 -0.20162272 -0.14858399
-0.1977777 -0.076608382 -0.0016871092
-0.1977704 -0.09425278 -0.021851419
-0.19776045 -0.118351 -0.049391262
-0.16058725 -0.20161927 -0.14437602
-0.0052788923 -0.201644 -0.14367066
0.045352392 -0.20165223 -0.14344089
0.1042106 -0.20166171 -0.14317368
0.12463273 -0.20166498 -0.14308093
0.19617471 -0.15759982 -0.09238451
0.1956851 -0.044096019 0.037327375
-0.20834358 0.032289084 0.12544696
-0.19781874 0.021202264 0.11290981
-0.1978109 0.0020807085 0.09121006
-0.19779809 -0.029132124 0.055788718
-0.14122304 -0.20163125 -0.13972966
0.012800122 -0.20165581 -0.13910536
0.033545315 -0.20165908 -0.13902126
0.074756078 -0.20166576 -0.13885431
0.16470379 -0.20168018 -0.13848983
0.18476987 -0.20168334 -0.13840847
0.1957422 -0.17828269 -0.11180614
0.19569279 -0.064177804 0.017683802
-0.19773729 -0.17941643 -0.11037754
-0.061594907 -0.20165265 -0.13492559
-0.040602393 -0.20165598 -0.13485073
0.19572265 -0.13312064 -0.056731157
-0.19776477 -0.11447586 -0.033360478
-0.19775422 -0.14040606 -0.062378101
-0.19774731 -0.15732874 -0.081315748
-0.12137547 -0.20165205 -0.13066719
-0.082128368 -0.20165813 -0.13054584
0.13513464 -0.20169264 -0.12987475
0.19571309 -0.11847825 -0.036554154
0.19570433 -0.10280193 -0.019011257
-0.19780488 -0.017760156 0.0779204
-0.19779249 -0.048368357 0.04390588
-0.19778471 -0.06753277 0.022608755
-0.18141884 -0.20165151 -0.12639014
-0.099573016 -0.20166415 -0.12617593
0.19569831 -0.090089165 -0.0013605355
-0.19773223 -0.1994251 -0.11953597
-0.15009183 -0.2016651 -0.12189762
-0.021805855 -0.20168495 -0.12162249
0.0075255139 -0.20168948 -0.12155966
0.02794677 -0.2016927 -0.12151591
0.068518497 -0.20169908 -0.12142895
0.088670157 -0.20170218 -0.12138574
0.16274737 -0.20171386 -0.12122713
0.18529877 -0.20171738 -0.12117873
0.048270579 -0.20170432 -0.1171913
0.10847534 -0.20171374 -0.11709051
0.19573835 -0.17976429 -0.092874698
0.19573073 -0.16005804 -0.071278147
0.19568099 -0.043073084 0.056927793
0.20408852 -0.024196114 0.07763093
0.20408155 -0.0059174588 0.097662911
-0.19781463 0.0013766884 0.10774301
-0.1977746 -0.098725185 -0.0012009441
-0.19774278 -0.17818655 -0.087681226
-0.18152225 -0.20167744 -0.11322473
0.19568737 -0.062524877 0.038739916
-0.19779561 -0.048017584 0.05716195
-0.12080133 -0.20169514 -0.10886304
-0.082368515 -0.20170093 -0.10883401
0.12769668 -0.20173317 -0.108676
0.19569553 -0.083818339 0.018829523
-0.19775243 -0.15877993 -0.058574192
-0.16166529 -0.20169735 -0.10462271
-0.10239632 -0.20170623 -0.10460506
-0.061352264 -0.20171237 -0.10459273
-0.040965699 -0.20171547 -0.10458665
-0.011997128 -0.20171994 -0.10457812
0.039691538 -0.20172787 -0.1045628
0.059636485 -0.20173091 -0.1045569
0.099267125 -0.20173693 -0.10454516
0.19571687 -0.13946112 -0.037657436
0.19570778 -0.12278442 -0.019757567
-0.19778006 -0.091107063 0.017505048
-0.19776322 -0.13370408 -0.02790099
-0.19773795 -0.19769597 -0.096112713
-0.1400497 -0.20170891 -0.10038994
0.0083316891 -0.20173126 -0.10041289
0.07936018 -0.20174205 -0.10042398
0.14930013 -0.20175266 -0.10043488
0.16869164 -0.20175564 -0.10043798
0.18800025 -0.20175844 -0.10044079
-0.19780134 -0.03906801 0.076008283
-0.19778986 -0.068240844 0.045125838
0.20409046 -0.037285086 0.077716999
-0.20834188 0.011503099 0.13219206
-0.19781025 -0.018095015 0.1010655
-0.19777124 -0.11776014 -0.0037146802
-0.12094289 -0.20172817 -0.092060678
-0.080237098 -0.20173419 -0.092103235
0.12915307 -0.20176554 -0.092322938
0.20831601 -0.077981584 0.037743356
-0.19774808 -0.17919637 -0.064308874
-0.19774078 -0.19798958 -0.083930843
0.19572607 -0.16618748 -0.051251404
0.19571167 -0.13932799 -0.023207365
0.19570094 -0.10760231 0.0099174967
0.20407683 -0.0037327106 0.11835669
-0.1977594 -0.1525497 -0.032715019
-0.18077558 -0.20173562 -0.083747976
-0.16028258 -0.20173866 -0.083787434
-0.1022211 -0.20174706 -0.083899193
-0.062004525 -0.2017529 -0.083976619
-0.042026281 -0.20175582 -0.084015124
-0.010805304 -0.20176053 -0.084075324
0.039831392 -0.20176804 -0.084173016
0.059373494 -0.20177096 -0.084210686
0.0982088 -0.20177674 -0.084285609
0.19573866 -0.1984992 -0.081060044
0.20409758 -0.063779198 0.058621518
-0.20834585 0.017046539 0.14570586
-0.19778539 -0.087542765 0.037972864
-0.14201003 -0.20174921 -0.07976412
0.0091052828 -0.20177132 -0.080120914
0.078703173 -0.20178157 -0.080285303
0.14997637 -0.20179212 -0.080453746
0.16897553 -0.20179492 -0.080498569
-0.19775517 -0.16794647 -0.04100984
0.195704 -0.12897886 -0.0021941958
0.20408511 -0.030642774 0.098360524
-0.19777705 -0.1132542 0.018335639
-0.19776775 -0.13753204 -0.0063256612
-0.12039803 -0.20176816 -0.071814232
-0.080506213 -0.20177382 -0.071942501
-0.19779901 -0.057778798 0.077682368
0.12990044 -0.20181203 -0.068773381
0.19571559 -0.15861423 -0.025422927
0.1956951 -0.10266139 0.031025793
-0.1978185 -0.00822544 0.13030519
-0.19774617 -0.1985566 -0.06040334
-0.18191114 -0.20177495 -0.063690178
-0.1618184 -0.20177782 -0.063771777
-0.10205281 -0.20178628 -0.064014487
-0.059827928 -0.20179224 -0.064186029
-0.040253796 -0.20179492 -0.064265482
-0.012433777 -0.20179904 -0.064378612
0.039965693 -0.20180655 -0.064591579
0.059120912 -0.20180935 -0.064669423
0.099899441 -0.20181525 -0.064835183
0.19573034 -0.18934095 -0.052711837
0.20409974 -0.078382991 0.058433168
-0.14105266 -0.20178849 -0.05995708
0.00984821 -0.2018097 -0.060632937
0.078072004 -0.20181954 -0.060938768
0.14795923 -0.20182961 -0.06125199
0.16924821 -0.20183271 -0.061347477
-0.19780831 -0.03863078 0.10545121
-0.19775988 -0.16705264 -0.021479128
0.19571055 -0.15606709 -0.01249194
0.20409451 -0.064576052 0.077896468
0.20408012 -0.024473932 0.11753286
-0.20834409 0.0021093783 0.14827166
-0.19778247 -0.10900225 0.039142605
-0.1198746 -0.20180655 -0.052362733
-0.19779505 -0.077530347 0.073047899
-0.19777383 -0.13429041 0.01770672
-0.1977535 -0.18869948 -0.035342213
-0.080261178 -0.20181942 -0.048789315
0.12829058 -0.20184875 -0.049980752
0.19570081 -0.12712009 0.022503851
-0.19778912 -0.095379457 0.058749966
-0.18018237 -0.20181322 -0.044424292
-0.16048634 -0.2018159 -0.044544753
-0.10189113 -0.20182395 -0.044903096
0.2041046 -0.099792287 0.052072577
0.204087 -0.048327468 0.10191046
-0.19776632 -0.15875711 0.00087249267
-0.14013249 -0.20182604 -0.040920194
-0.030052237 -0.20184106 -0.041637477
0.0078657744 -0.20184636 -0.041884657
0.029393733 -0.20184934 -0.042024966
0.069488265 -0.20185494 -0.042286333
0.088079385 -0.20185751 -0.042407569
0.19572429 -0.19276613 -0.03435057
-0.19781555 -0.027526166 0.12970905
-0.19780348 -0.060319029 0.098381504
0.14824648 -0.20187306 -0.039194461
0.16904283 -0.20187593 -0.039338227
0.19570701 -0.14921571 0.010787784
0.20409663 -0.078810178 0.077990107
0.20408182 -0.036791351 0.11813129
-0.061952759 -0.20185119 -0.034080025
-0.010608586 -0.2018581 -0.034455236
0.048136368 -0.20186627 -0.034884866
0.10875624 -0.20187461 -0.035328086
0.19571431 -0.17783685 -0.013144193
-0.19779818 -0.078372739 0.086959235
-0.19777952 -0.12935753 0.038909044
-0.1977704 -0.15415938 0.015534757
-0.1977561 -0.19329154 -0.021345017
-0.12146589 -0.20185035 -0.029989
-0.080518566 -0.2018559 -0.030304428
0.12933892 -0.20188451 -0.031920906
0.19569464 -0.12346704 0.044492301
-0.19782116 -0.01877561 0.14810644
-0.19776262 -0.17992391 -0.0017234681
-0.15566474 -0.20186013 -0.022470532
0.097686186 -0.20189404 -0.024618264
0.20409076 -0.06863936 0.098388061
-0.030956008 -0.20188355 -0.019988893
0.008748549 -0.20188892 -0.020340739
0.029785052 -0.20189172 -0.020527123
0.068970256 -0.20189697 -0.02087432
0.14890188 -0.20190781 -0.021582721
0.1693029 -0.20191056 -0.021763502
-0.1977848 -0.12287344 0.057524793
-0.18138099 -0.2018708 -0.015087185
-0.13510939 -0.20187688 -0.01551461
-0.10003188 -0.20188147 -0.015838681
0.19570354 -0.15292992 0.026366588
0.20410316 -0.10783057 0.067658506
-0.19781251 -0.04769697 0.129086
-0.19779415 -0.098800197 0.082525484
-0.11556681 -0.20188636 -0.012177585
0.11759427 -0.20191711 -0.014420209
0.20407706 -0.033533242 0.13817357
-0.20834722 -0.0072723916 0.16835712
-0.080283336 -0.2018978 -0.0090389838
0.19570993 -0.17427178 0.013236938
-0.19780655 -0.06785246 0.11611651
-0.197769 -0.17331351 0.02131751
-0.19230573 -0.20189017 -0.004426002
-0.17066716 -0.20189297 -0.0046501751
-0.1410763 -0.20189679 -0.004956841
-0.061315071 -0.20190698 -0.0057833786
-0.011499877 -0.20191342 -0.0062995544
0.048090763 -0.20192134 -0.0069172373
0.20408536 -0.060817294 0.11832227
-0.19777827 -0.14928086 0.046078857
0.18948533 -0.2019462 -0.0050557251
-0.19779728 -0.097573116 0.095072255
-0.031819843 -0.2019242 0.00070288772
0.009591992 -0.20192945 0.00024333593
0.027593136 -0.20193183 4.3541189e-05
0.068475179 -0.2019372 -0.00041031832
0.088779993 -0.20193988 -0.00063580269
0.13914932 -0.20194644 -0.0011948942
0.15914157 -0.20194912 -0.0014168619
-0.19778995 -0.12029527 0.07786005
-0.10199594 -0.20192188 0.0048657353
0.19570649 -0.17358811 0.026446816
0.2041072 -0.13234301 0.062685333
0.20409282 -0.087615393 0.10208724
-0.19781946 -0.037926968 0.15285249
-0.1977673 -0.18681963 0.022567181
-0.12244773 -0.20192599 0.0084665706
-0.080529876 -0.20193124 0.0079709878
0.10853975 -0.20195538 0.0057354565
0.17761335 -0.20197058 0.0081531992
0.1957131 -0.19605595 0.013075469
0.2041121 -0.15069635 0.052399062
0.20409895 -0.10923593 0.088435195
-0.19778536 -0.13929822 0.070143245
-0.19777502 -0.16901888 0.044483807
-0.17108274 -0.20193309 0.015735595
-0.14213434 -0.20193666 0.015372721
-0.061505828 -0.20194668 0.014361976
-0.005124222 -0.20195365 0.013655184
0.048058301 -0.2019605 0.012988297
0.20408037 -0.05508887 0.13785075
-0.19782476 -0.027568962 0.16892414
-0.04028438 -0.20196211 0.020601122
0.012918236 -0.20196867 0.019896744
0.068001561 -0.20197564 0.019167302
0.087868594 -0.20197809 0.018904207
0.12980047 -0.20198345 0.01834893
0.14939997 -0.20198596 0.018089352
0.19570954 -0.19292653 0.025198307
0.20410335 -0.1276962 0.080654196
-0.19781531 -0.058077835 0.14769642
-0.10130259 -0.20196104 0.02464762
0.033074226 -0.20197749 0.022821782
0.20408909 -0.086150102 0.11852364
-0.19780578 -0.087653689 0.12527893
-0.19779484 -0.11958398 0.098441198
-0.12131214 -0.20196491 0.028141793
-0.080303691 -0.20196986 0.027570453
-0.19778235 -0.15811266 0.069042377
-0.19777165 -0.18951118 0.042827662
-0.18182614 -0.20197016 0.035401966
-0.061688419 -0.20198464 0.033645924
-0.021488974 -0.20198953 0.033058342
0.1695929 -0.20201302 0.03026497
0.19570288 -0.1829526 0.045693275
0.20410797 -0.14912255 0.073627405
-0.19779055 -0.13804896 0.09147685
-0.16040266 -0.20197898 0.038255867
0.028337859 -0.20200157 0.035433289
0.048022181 -0.20200402 0.035138872
0.11383794 -0.20201212 0.034154471
-0.19777556 -0.18440963 0.056350581
-0.040914752 -0.20199943 0.039573487
-0.0011771283 -0.20200413 0.038965907
0.067548007 -0.20201248 0.037914898
0.20408367 -0.077767454 0.13751148
0.2040756 -0.052717678 0.15801005
-0.19782211 -0.048001252 0.17027621
-0.19781215 -0.077507786 0.14629142
-0.1978008 -0.11144973 0.11870123
-0.14109746 -0.20199364 0.044221278
-0.10063866 -0.20199841 0.043589201
