# .PCD v0.7 - Point Cloud Data file format
VERSION 0.7
FIELDS x y z
SIZE 4 4 4
TYPE F F F
COUNT 1 1 1
WIDTH 670
HEIGHT 1
VIEWPOINT 0 0 0 1 0 0 0
POINTS 670
DATA ascii
-0.073575526 0.13781549 -0.019741476
-0.15645644 0.13454843 0.0028755069
-0.14457747 0.13498268 0.010509849
-0.11801177 0.13581027 0.024414599
-0.10048318 0.13612646 0.028514385
-0.079038233 0.13610089 0.024425507
-0.062843412 0.13588883 0.01708287
-0.044930577 0.13542908 0.0039898753
-0.042970717 0.13426572 -0.022014022
-0.044357479 0.13359225 -0.036654472
-0.18511471 0.13065141 0.0037292242
-0.17346033 0.13145275 0.018174589
-0.15521356 0.13256823 0.037927687
-0.1430997 0.13307348 0.046199679
-0.11457804 0.13383329 0.05683136
-0.094799608 0.1340771 0.058379114
-0.06671685 0.13409555 0.053831637
-0.046631992 0.13354605 0.039000571
-0.02768147 0.13278189 0.019951224
-0.015275002 0.13201344 0.0019614697
-0.010813236 0.1310593 -0.018455863
-0.009667635 0.12951753 -0.05038321
-0.1963993 0.12775555 0.021832764
-0.1820536 0.12887365 0.040721059
-0.15882543 0.13019089 0.061802566
-0.13730583 0.13099501 0.073312819
-0.12365863 0.13135129 0.077651203
-0.095608413 0.13180813 0.081260979
-0.074457675 0.13189319 0.078984201
-0.046756327 0.13151512 0.066570759
-0.034823716 0.13128382 0.059904754
-0.018585622 0.13066445 0.044963479
-0.0024604499 0.12996536 0.028507948
0.0045376122 0.12882549 0.0052474737
0.0073303282 0.12809804 -0.0092863441
0.0095001459 0.12658647 -0.038814545
-0.19574293 0.12579538 0.052931666
-0.17948249 0.12678462 0.067702472
-0.15977004 0.12779793 0.082240105
-0.13893458 0.12859231 0.092594743
-0.12128302 0.1290604 0.097655535
-0.10101297 0.12947279 0.10119992
-0.079898238 0.12960632 0.099528849
-0.051510781 0.12939739 0.090245545
-0.030973583 0.1290023 0.079110682
-0.011345983 0.12842728 0.064892292
0.016752213 0.12562931 0.0087643266
0.017079651 0.12154393 -0.065305829
0.010047108 0.11937274 -0.10327482
-0.21601066 0.12200155 0.053439319
-0.1957359 0.12346851 0.074429214
-0.18088135 0.12435518 0.086592555
-0.16205922 0.12532929 0.099451959
-0.14183417 0.12611127 0.10874528
-0.10873488 0.12689534 0.11548257
-0.090191334 0.12716271 0.11631966
-0.069191873 0.12735039 0.11530024
-0.050769746 0.12719178 0.108881
-0.030453444 0.12681854 0.098413229
-0.010686964 0.12632316 0.085968316
0.0063299537 0.12528074 0.064727247
0.01815179 0.12374283 0.036064029
-0.21568546 0.1197252 0.074935555
-0.030410439 0.12464049 0.11588567
0.010691255 0.12279177 0.07743156
0.029588521 0.11764655 -0.0097215176
0.030570835 0.11627863 -0.032051325
-0.22162881 0.1167821 0.085407436
-0.19737026 0.11845104 0.10583097
-0.16715136 0.11966811 0.11804122
-0.011639923 0.12196598 0.1200068
0.0052640438 0.12098289 0.10129511
0.035653025 0.11125211 -0.054587364
0.030478448 0.10902931 -0.08760047
0.02308628 0.10618147 -0.1297332
-0.14377677 0.11725336 0.12657523
-0.052459389 0.11883853 0.1296649
0.036006123 0.11294692 0.024176598
0.031428516 0.10342897 -0.11383522
-0.21942946 0.11146314 0.10890216
0.0090964437 0.11604679 0.1213932
0.031234145 0.11243203 0.066067815
0.046567708 0.10587248 -0.028746724
-0.24654618 0.10673871 0.098107994
-0.1219295 0.1115485 0.13355953
0.040608734 0.10816836 0.051294208
0.049838006 0.10421786 -0.0034097433
-0.022199959 0.11036214 0.13672775
0.028121203 0.10830647 0.098776519
0.053779542 0.094029114 -0.089192986
0.045630872 0.090045802 -0.13806152
-0.2692841 0.099033765 0.095339656
-0.20445028 0.10292824 0.12756407
-0.10239258 0.10567453 0.13691616
-0.080850899 0.10612513 0.13731217
-0.0016472638 0.10770056 0.13777393
0.055336356 0.099927984 0.029223323
0.062844664 0.094559915 -0.038187385
0.063067883 0.092162423 -0.067551374
-0.23790774 0.09808892 0.11848903
-0.17358872 0.10078797 0.13469636
-0.15410236 0.10130149 0.13603359
0.028525621 0.10368244 0.12000281
-0.21893182 0.096052349 0.12984866
-0.051498681 0.10063663 0.1407702
0.018781394 0.10203712 0.13943541
0.053969562 0.096906915 0.072863519
0.06825605 0.091746196 0.01105082
0.070765734 0.090186395 -0.0071902871
-0.30218229 0.087209076 0.091128647
0.047941089 0.095762797 0.097700238
0.079316348 0.08312311 -0.047692895
0.072052121 0.077032112 -0.11222231
-0.26255342 0.08715044 0.11866039
0.037559271 0.096052453 0.13711965
0.0677571 0.089545742 0.061211944
0.075806305 0.086416148 0.026321292
0.083551407 0.081253044 -0.029856026
0.083555534 0.076591261 -0.0788306
0.072461396 0.069898725 -0.14636338
-0.32028016 0.079434834 0.090384841
-0.29006609 0.082016781 0.10894758
-0.12500808 0.089505218 0.14321494
-0.1139687 0.089814939 0.1435675
-0.019130319 0.09233617 0.14517993
-0.24015495 0.082379252 0.13468254
-0.0017210245 0.089837834 0.1470108
0.090547398 0.077212512 -0.00042426586
0.087884977 0.061820783 -0.15077448
-0.3398281 0.071346439 0.088055432
-0.30751106 0.074390739 0.10864794
-0.20192227 0.080546975 0.13992685
-0.18123618 0.081389017 0.14259696
-0.16158581 0.082080856 0.1441071
-0.08742547 0.084409945 0.14712876
-0.066102773 0.085051976 0.147735
0.067545533 0.083262779 0.096316874
0.099970981 0.069885001 -0.039104223
0.10073976 0.06660787 -0.07043016
-0.22212908 0.076496847 0.13887388
0.02921316 0.084902078 0.15094697
0.077658951 0.079086021 0.084833324
0.085715234 0.077103317 0.064492285
0.096264839 0.072957553 0.023595273
0.10364391 0.068170011 -0.022384942
0.10498568 0.061193451 -0.086944103
-0.32533929 0.066633172 0.10815817
-0.28172591 0.070120394 0.12786829
-0.259536 0.071728006 0.13640893
-0.044160396 0.079664662 0.15086776
0.048182875 0.082268044 0.14993036
0.059012651 0.080749229 0.13353747
0.10944261 0.051078022 -0.14452338
-0.1109052 0.074445754 0.15064782
0.10120964 0.068634212 0.044346333
0.11136767 0.063415453 -0.0035533905
0.11648911 0.058341995 -0.048865676
0.11683971 0.056386381 -0.065903544
0.11593615 0.053568289 -0.090083838
0.11419064 0.050106123 -0.11962306
0.13816462 0.051290721 -0.11568177
0.14221454 0.048790947 -0.13841033
-0.37177983 0.054867014 0.082394242
-0.30409935 0.062197715 0.12613082
-0.13980386 0.070339486 0.1510362
0.12021932 0.056992866 -0.030373573
0.13851923 0.052902862 -0.069663763
0.15529297 0.052188873 -0.080129027
0.16372219 0.050307617 -0.098204255
0.16798574 0.047700331 -0.12128508
0.17313986 0.045664847 -0.13978875
-0.3561227 0.054112479 0.1028564
-0.059787124 0.070146583 0.15487754
-0.015416652 0.071653008 0.15534657
0.069794163 0.073526472 0.14790279
0.075942084 0.070987329 0.12547749
0.099383831 0.066014223 0.078508019
0.13516812 0.051785141 -0.047517776
0.14925414 0.054544732 -0.028696835
0.17026022 0.052162006 -0.053813577
0.18174146 0.049942017 -0.075052619
0.19498779 0.045247987 -0.1170125
0.20664085 0.041724071 -0.14896953
-0.34443882 0.052751541 0.11821222
-0.24088714 0.059934765 0.1475662
-0.19990113 0.061754674 0.15103608
-0.18055555 0.062490419 0.15169221
0.024352521 0.07428515 0.19051075
0.08796823 0.066395655 0.11057311
0.11140814 0.060675696 0.058717966
0.11905649 0.057565607 0.031893611
0.14160946 0.052787244 -0.012224674
0.16030234 0.054351136 -0.0047978759
0.17795035 0.052358001 -0.025416672
0.19269733 0.050281778 -0.045916915
0.20452046 0.048225775 -0.065469742
0.21654207 0.045897081 -0.08724761
0.22428684 0.041817561 -0.12181783
0.233677 0.039460242 -0.143116
0.24003863 0.037717342 -0.15870655
-0.32675561 0.052021876 0.13586462
-0.15917864 0.060533926 0.15653551
-0.041432858 0.064824834 0.15795583
0.014786154 0.07301642 0.20626432
0.1286712 0.051854864 0.011376023
0.15510388 0.054500341 0.024738431
0.18182063 0.052411467 0.0013147593
0.19662875 0.050819352 -0.015035689
0.21451332 0.048430339 -0.038397431
0.22953093 0.045825914 -0.06265378
0.24192679 0.043624341 -0.08307755
0.25021404 0.039295733 -0.1188823
0.26312762 0.035819307 -0.14933097
-0.30703667 0.051195547 0.15106231
-0.28545436 0.05219467 0.1527403
-0.26427069 0.053169802 0.15434545
-0.22141263 0.054667532 0.15400362
0.042786807 0.068933308 0.18991888
0.14173108 0.053064927 0.043129504
0.15832753 0.0536405 0.042963684
0.18477324 0.051763847 0.02159375
0.20269607 0.0503802 0.0062663555
0.22367832 0.048218474 -0.01577127
0.23875362 0.046114013 -0.035769701
0.25726613 0.043099478 -0.063578248
0.2699261 0.040663794 -0.08542192
0.27549824 0.036315188 -0.11978936
0.28195494 0.033850029 -0.14016855
-0.09199509 0.057074323 0.16119152
0.032802731 0.067660168 0.20503956
0.038935721 0.061915576 0.16105354
0.08650817 0.062356971 0.15129888
0.13079089 0.050929517 0.055028558
0.14971089 0.053332865 0.067557037
0.17864148 0.051539749 0.046441436
0.19918098 0.050110042 0.030296385
0.21708049 0.048827395 0.015956163
0.23531222 0.04755275 0.001584053
0.253333 0.045159057 -0.020972311
0.26874864 0.042908162 -0.041764736
0.28129876 0.040553868 -0.062535405
0.29422078 0.037871376 -0.085824609
0.30011901 0.03042829 -0.14225614
-0.34745035 0.042978749 0.15314639
-0.33052811 0.045098022 0.16372371
-0.30974409 0.046666384 0.16928208
-0.28938457 0.047487423 0.16958779
-0.26998708 0.048142537 0.1689657
-0.14156249 0.052145839 0.16244727
-0.11966106 0.053040251 0.16285646
0.11415321 0.053025126 0.098514199
0.12268034 0.050607488 0.078801692
0.1439696 0.052656293 0.087673008
0.16675979 0.051406309 0.072431505
0.20439653 0.049081549 0.045389235
0.23999631 0.046532586 0.017295837
0.25827062 0.04525581 0.0031023026
0.27654096 0.042922601 -0.018680334
0.29210937 0.040329009 -0.041591406
0.30166402 0.038258716 -0.059090495
-0.25146672 0.046093151 0.17321861
-0.20547745 0.047090143 0.16751713
-0.19489524 0.047342092 0.1663633
-0.062431276 0.052384406 0.16516393
-0.012414128 0.054131061 0.16360813
0.099247262 0.053546831 0.1286931
0.12994285 0.052314982 0.11158264
0.15794674 0.050921038 0.094078422
0.18917078 0.049181327 0.073260784
0.21808012 0.047429189 0.052994728
0.26252735 0.044265613 0.018542409
0.27776092 0.043182954 0.0067456961
0.2961708 0.040887073 -0.01443553
0.30870631 0.038462758 -0.034896255
0.31512177 0.036848336 -0.047988176
0.32506752 0.033082947 -0.077138543
-0.23082677 0.043900162 0.17544556
0.11859886 0.051474378 0.13045228
0.14909691 0.050167173 0.11304551
0.1800295 0.048771247 0.094910622
0.20836434 0.047162235 0.076036572
0.2401289 0.045187935 0.053710043
0.25774854 0.043970227 0.040486157
0.29992533 0.040734097 0.0066316128
0.31539387 0.03820394 -0.01498425
0.33500832 0.03195253 -0.063234329
-0.34785959 0.034738645 0.16898239
-0.15529355 0.043052465 0.17100996
-0.099775225 0.044846132 0.16755754
0.0087525547 0.049340189 0.1674189
0.078093663 0.05189836 0.16523439
0.10774137 0.050741807 0.14924186
0.13767061 0.049463749 0.13235801
0.16796568 0.048063308 0.11455339
0.19897041 0.046831876 0.097682118
0.23290402 0.044797242 0.074620783
0.28540784 0.041217029 0.036047518
0.31870994 0.038043112 0.005538106
0.33789131 0.032963261 -0.033794045
-0.30191275 0.034223884 0.17557037
0.039712787 0.049779415 0.18184918
0.12931654 0.048674017 0.14957494
0.15913643 0.047350228 0.13258094
0.21751517 0.044857293 0.09995687
0.23719896 0.043717831 0.087001622
0.26000124 0.042289764 0.071286798
0.28025916 0.040885001 0.056435406
0.3068167 0.038697913 0.034705877
0.34047139 0.034859464 0.00018996
0.35842302 0.024808422 -0.070577741
-0.28091827 0.031993791 0.17726117
-0.21154746 0.034957662 0.1767621
-0.12422583 0.038562864 0.17533004
-0.029478341 0.042078838 0.17124385
0.063535511 0.045762792 0.16871881
0.14791866 0.046789259 0.15161222
0.17757416 0.045407355 0.13445091
0.19934103 0.044248536 0.12093008
0.25822484 0.041619658 0.087590396
0.27526721 0.040443137 0.07528168
0.31010047 0.037582964 0.04720962
0.32502049 0.035774872 0.031455517
0.35685918 0.028337613 -0.025060892
0.36425492 0.024530545 -0.051493526
-0.33221921 0.025779501 0.17402339
-0.26078221 0.029661179 0.17820978
-0.076038241 0.037254423 0.17372823
0.10039602 0.044240251 0.16778368
0.11826353 0.04482767 0.16643012
0.16888097 0.044822887 0.15214777
0.22010109 0.042101145 0.12068623
0.23936208 0.04098542 0.10827798
0.29882526 0.037867188 0.072013438
0.35900682 0.029437914 0.0022969246
0.18949005 0.042859897 0.1525144
0.2081273 0.041842327 0.14101219
0.2598232 0.038789347 0.10769546
0.27953658 0.038257912 0.098868489
0.29925114 0.036939129 0.085216045
0.32512704 0.034050316 0.06020081
0.34608725 0.030853435 0.034686506
0.37608227 0.021688133 -0.02995795
0.38026604 0.018938661 -0.047990084
-0.37133965 0.015177682 0.16307878
-0.22990713 0.02446723 0.17873818
-0.18917045 0.026173338 0.1774295
-0.064469665 0.031945094 0.17671907
0.14850286 0.040543228 0.16794801
0.22837614 0.039852425 0.14115864
0.24989288 0.038543135 0.12720072
0.31942934 0.033891544 0.079570055
0.36774218 0.025456712 0.01524961
0.39148948 0.012180537 -0.071163297
-0.16933373 0.024239197 0.17980909
-0.00097501278 0.031858876 0.17673379
0.16910389 0.038657859 0.16834342
0.18902698 0.039370388 0.16686726
0.21914253 0.039448038 0.15875918
0.26977289 0.036333784 0.12604833
0.35767955 0.027012706 0.046239495
0.39644954 0.012537882 -0.049899817
-0.34192422 0.011381418 0.17379653
-0.30113474 0.014258415 0.17874134
-0.15010211 0.021187246 0.17558956
-0.084985286 0.024746194 0.17752498
0.018806964 0.029904366 0.17764437
0.037821144 0.030755177 0.17712379
0.068914413 0.03211388 0.17608452
0.23884492 0.037530094 0.1588245
0.25992322 0.036201775 0.1451565
0.28937298 0.033853009 0.12321949
0.31969634 0.031228915 0.099446654
0.33955714 0.029168963 0.081909418
0.38959226 0.018059239 0.0036100149
-0.37157771 0.0046520084 0.16398847
-0.28014567 0.012185708 0.18039972
-0.130712 0.019347951 0.17811829
0.30880195 0.030904964 0.11767948
0.388767 0.017208949 0.017412364
-0.31915024 0.0061895102 0.17722213
-0.26044479 0.0098621249 0.18073386
-0.10937312 0.017244697 0.17830712
-0.037191123 0.02089864 0.17784894
0.27983004 0.032819554 0.15296388
0.29830796 0.030972406 0.13742548
0.35961449 0.023440421 0.078093529
0.37802637 0.019399732 0.050417185
-0.19990662 0.0095015466 0.17976141
0.32828376 0.026285946 0.1190846
-0.30033699 -0.0038959235 0.15496099
-0.30746552 -0.0080990195 0.13458508
-0.30196664 -0.011745378 0.1135385
-0.24150345 0.0041021705 0.18067801
-0.017160028 0.015765071 0.17821813
0.100228 0.022089183 0.1781131
0.25930962 0.028951973 0.16885769
0.27802187 0.029520124 0.166493
0.29902792 0.028842777 0.15681946
0.31751406 0.026512235 0.13904977
0.34776425 0.022133201 0.10695422
0.37689117 0.017416999 0.073383152
-0.38763627 -0.011857793 0.15696979
-0.32932058 -0.0050211698 0.17593116
-0.27341184 -0.0084241629 0.14193475
-0.17055807 0.0044408143 0.17960596
-0.060727745 0.010365143 0.17889231
0.12443689 0.020518765 0.1785574
0.14825344 0.021985456 0.17935634
-0.34863195 -0.010158256 0.17306519
-0.32073537 -0.020457938 0.11197746
-0.2773073 -0.008826226 0.15924764
-0.25509658 -0.0080755949 0.15667295
-0.15228209 0.0022006184 0.17975551
-0.10924688 0.0045859218 0.17955732
0.0025592148 0.010666087 0.17844087
0.015495032 0.011350766 0.17821491
0.078439206 0.014664873 0.17702609
0.16863325 0.020214453 0.17944318
0.18841784 0.021064505 0.17808324
0.37903076 0.014237732 0.087706566
0.40574947 -0.0010610074 0.0012350082
-0.31776199 -0.016559064 0.14957929
-0.24462482 -0.010172024 0.16062158
-0.22302541 -0.0049883574 0.18055242
-0.13062587 0.0001899302 0.17988819
0.23021658 0.02022782 0.1763612
0.31794173 0.022722617 0.16348886
0.33914116 0.019818485 0.14264876
0.39766482 0.00079070032 0.029454231
-0.040298611 0.0021633506 0.17958903
0.044200033 0.006787166 0.17795712
0.20849824 0.016745001 0.17958957
0.39282015 0.0026678741 0.055990934
-0.39518413 -0.028274789 0.14994627
-0.36612967 -0.022731096 0.16853905
-0.29376766 -0.016890407 0.17594588
-0.20428452 -0.010561511 0.18074077
-0.091714948 -0.0039560348 0.18015027
0.33902395 0.017430946 0.15890312
0.35796395 0.014207274 0.13763523
0.3750914 0.010381997 0.11395848
-0.26551315 -0.018495217 0.17663658
-0.25367972 -0.01777707 0.17662454
-0.23138103 -0.016751245 0.17502964
-0.020248204 -0.0028978735 0.17980838
0.063063622 0.0017723441 0.17787129
0.41779628 -0.018409088 -0.022742748
-0.34619221 -0.027729258 0.17291081
-0.17485043 -0.015500262 0.18045384
-0.070970207 -0.0090742856 0.18036097
0.099997744 0.00085999072 0.17717862
0.11810406 0.0019030124 0.17679864
0.25004101 0.010757565 0.17995316
0.26871249 0.011468813 0.17784119
0.28983802 0.0123436 0.17578238
0.41563198 -0.016879141 0.00094455481
-0.00056427717 -0.0079661161 0.179735
0.044313461 -0.0053632557 0.17865121
0.13894421 0.00010590255 0.17627615
0.16526082 0.0016142279 0.17555702
0.20835015 0.0045494586 0.17654198
0.39929715 -0.00305821 0.085153103
0.41419011 -0.016714171 0.017350852
-0.33349249 -0.033802256 0.17388195
-0.31094632 -0.031834468 0.17624474
-0.14578566 -0.020299718 0.18038899
-0.13486984 -0.019591883 0.18041384
0.018850058 -0.0099162459 0.17942601
0.36002094 0.0079438984 0.16071504
-0.39460465 -0.047184736 0.14761549
-0.020377517 -0.015425399 0.18021238
0.22841443 0.00077392161 0.17977595
0.308523 0.0052932948 0.17650181
0.40869612 -0.016696498 0.048074305
-0.28944066 -0.039297551 0.16791761
-0.24141201 -0.036094218 0.16792607
-0.21113446 -0.033073708 0.17236453
-0.10648829 -0.024285704 0.18039125
-0.085300475 -0.022859886 0.18045115
-0.040550917 -0.019885629 0.18041325
0.075563475 -0.012670085 0.17809224
0.19421542 -0.0053704232 0.17539465
0.37762743 -0.0033658892 0.13013577
0.38719949 -0.0077887326 0.10772592
-0.36819121 -0.049075007 0.16391468
-0.2669538 -0.040496483 0.17138553
-0.1945363 -0.033493266 0.18050873
0.32943538 0.00036843121 0.17322934
-0.35190025 -0.050527975 0.16843337
-0.30502251 -0.045795977 0.17486972
-0.064700454 -0.027934179 0.18039674
0.05997476 -0.01977843 0.17849493
0.14988646 -0.015260488 0.17126763
0.26302674 -0.0090636313 0.16437036
0.41195539 -0.019340947 0.076134562
0.42833164 -0.0351298 0.0034877658
-0.15419725 -0.037528738 0.17999613
0.11519538 -0.019380614 0.17685115
0.28255391 -0.0086060911 0.17278278
-0.12524644 -0.038821578 0.17989761
-0.00098079443 -0.029989511 0.1797874
0.018548161 -0.028687835 0.1794104
0.10316782 -0.023129031 0.17743719
0.16852781 -0.018878743 0.17573267
0.20924142 -0.015088066 0.17943478
0.23994261 -0.019383892 0.15241098
0.34782487 -0.0075017363 0.16987932
0.36849663 -0.007975772 0.16176254
-0.32555589 -0.057565734 0.17608619
-0.17637765 -0.045626566 0.18073297
-0.075706005 -0.03854312 0.17987031
0.30394471 -0.01334165 0.17040992
-0.37066713 -0.070182368 0.1528458
-0.33974358 -0.065093324 0.16423148
-0.28920898 -0.059849307 0.17040098
-0.27072582 -0.059074357 0.16803044
-0.23675594 -0.055843905 0.17098498
-0.21343824 -0.052737355 0.17661202
-0.11496904 -0.044779062 0.1794855
-0.044796854 -0.039542779 0.17977214
0.037652612 -0.033716738 0.17878795
0.229105 -0.019112363 0.18085778
0.22467932 -0.035541907 0.1156708
0.26424974 -0.017685145 0.17616296
0.40497354 -0.026278347 0.099446237
0.078509495 -0.034044519 0.17776567
-0.024879217 -0.044623747 0.17917818
0.059666723 -0.038513467 0.1779573
0.32275692 -0.025178775 0.15181172
0.32520562 -0.018582538 0.17703474
0.39782947 -0.026846141 0.12281847
0.41935897 -0.038898215 0.068962932
0.42429313 -0.043395236 0.049793839
-0.21993461 -0.065765843 0.16794288
-0.15558112 -0.05784364 0.17942888
0.10917804 -0.038087234 0.17687231
0.22230595 -0.037734374 0.14439201
-0.36953816 -0.088208988 0.14017773
-0.31480083 -0.074591622 0.17589849
-0.14492485 -0.060478076 0.17902201
-0.056135982 -0.053692117 0.17839348
0.0045666993 -0.049029574 0.17805231
0.024171919 -0.04756175 0.17779654
0.13520811 -0.040527269 0.17145383
0.16486505 -0.038458675 0.17048585
0.18936117 -0.034816578 0.17708677
0.2833901 -0.028304562 0.17383975
-0.32740888 -0.079106107 0.17609739
-0.29431817 -0.077855512 0.17089272
-0.25575027 -0.07548137 0.16828728
-0.077251524 -0.058681771 0.1781736
0.20990886 -0.035197362 0.18070388
0.36961013 -0.027501747 0.16185325
0.38819033 -0.029046699 0.15044582
-0.34765759 -0.090873703 0.15169054
-0.19720742 -0.07275109 0.17401975
-0.11635008 -0.065015599 0.17855304
-0.095059425 -0.063407168 0.17815065
-0.036118001 -0.058821991 0.17752969
0.043102831 -0.052692816 0.17657
0.090427101 -0.049035758 0.17598057
0.21829398 -0.043792769 0.15710789
0.26418549 -0.037655458 0.16618937
0.29946041 -0.034292147 0.16812462
0.33472979 -0.047229946 0.1093291
0.35407561 -0.029243097 0.17053139
-0.18182114 -0.073171034 0.18050873
-0.016102523 -0.060580373 0.17696452
-0.30511966 -0.088607296 0.1739769
-0.24451301 -0.085147128 0.16828597
0.055494756 -0.058297515 0.1753934
0.20257901 -0.059698388 0.12602574
0.22923364 -0.043657124 0.17621219
0.33707112 -0.043975249 0.14259011
0.40822804 -0.047529444 0.10826844
-0.15978232 -0.078171685 0.18037325
0.31837779 -0.039122179 0.17612857
0.41261724 -0.054202884 0.093699574
-0.14148226 -0.0800163 0.18031567
-0.087338835 -0.075394616 0.18032295
-0.055771321 -0.072667375 0.18044269
0.004353106 -0.06811291 0.17840737
0.1083581 -0.060623065 0.17351216
0.12949055 -0.059172645 0.17226493
0.15034425 -0.05774425 0.17102396
0.18405417 -0.052947417 0.17781681
0.41723847 -0.068446741 0.052633166
-0.29470304 -0.10038505 0.16724658
-0.26882628 -0.097634539 0.1690352
-0.19968113 -0.094294325 0.15981209
0.024235755 -0.069480583 0.17882651
0.28641236 -0.051506564 0.16239625
0.41317123 -0.067975864 0.06658709
0.4205943 -0.079685465 0.023450911
-0.21217689 -0.094030842 0.17663866
0.084262401 -0.068121359 0.17635226
0.20157012 -0.062898234 0.1588912
0.24311958 -0.055404261 0.17217255
0.37345532 -0.047723129 0.15924925
0.39585072 -0.052625984 0.13556683
-0.18320236 -0.093891874 0.18018961
-0.035574824 -0.080799773 0.18009835
-0.015183806 -0.07896705 0.18016887
0.044176549 -0.073650554 0.18031001
0.26504064 -0.05762206 0.16805118
0.34738812 -0.048941806 0.17269266
-0.30884692 -0.10966726 0.17673784
-0.20757148 -0.1107844 0.14228839
0.06333831 -0.075106755 0.18025702
0.19910306 -0.062850788 0.18035972
0.21558976 -0.062665462 0.17598724
0.3164016 -0.056228831 0.16709858
-0.24301496 -0.10844301 0.17281318
-0.15407977 -0.098397657 0.17923468
-0.12396577 -0.095326409 0.18031132
-0.070252508 -0.090389624 0.18043202
0.16910683 -0.070318654 0.17455798
0.19804852 -0.080154672 0.13307631
0.3474234 -0.075382754 0.10363144
-0.20889601 -0.11294867 0.15928805
0.10401575 -0.077680781 0.18014371
0.19874151 -0.075753465 0.15771413
0.40102014 -0.069690242 0.11621612
-0.28657159 -0.11902593 0.1747064
-0.26683196 -0.11913137 0.168365
-0.085280448 -0.098825619 0.17911386
0.0047128201 -0.090018734 0.18035609
0.024508864 -0.088183418 0.18029845
0.12850991 -0.07848455 0.18017948
-0.2213203 -0.1158375 0.17662787
-0.050191879 -0.098789528 0.17927533
0.14959416 -0.07956247 0.18019766
0.19862574 -0.076378033 0.17550081
0.19576137 -0.095279798 0.11571997
0.29811364 -0.071038499 0.1623708
0.38299504 -0.067607716 0.14755911
0.40653908 -0.082945332 0.091181636
-0.015852839 -0.098682895 0.1796338
0.044023633 -0.092681125 0.18043995
0.2326735 -0.076738104 0.17357075
0.36415872 -0.06761153 0.16248566
0.2547214 -0.079144672 0.1686818
0.34327102 -0.069146737 0.17304748
-0.25371465 -0.1295629 0.17670059
0.085260808 -0.098327681 0.17991948
0.11338104 -0.095373318 0.18039244
0.27424061 -0.083493337 0.16770822
-0.27092084 -0.13867398 0.17598498
0.070997044 -0.10462265 0.17475808
0.3176102 -0.0805244 0.17247331
0.1345308 -0.099825546 0.17929655
0.1527541 -0.097731903 0.18000227
0.17354289 -0.095545217 0.1802026
0.39734158 -0.094564661 0.1147154
0.19557039 -0.099249646 0.17153972
0.37619489 -0.087611064 0.15078783
0.39078048 -0.092773721 0.13101298
0.249461 -0.098663226 0.16575122
0.2938526 -0.093063161 0.16858727
0.35483569 -0.088069007 0.16456497
0.22236951 -0.10402338 0.17605704
0.27467012 -0.10284178 0.16341048
0.31306893 -0.10027696 0.16747421
0.32905409 -0.098397538 0.17615986
0.28939319 -0.11296849 0.17243958
0.24272436 -0.11985959 0.17625141
0.26485819 -0.1182773 0.17370754
0.30872098 -0.11825113 0.1761933
0.29295677 -0.12901156 0.17621404
0.26571029 -0.13863896 0.17542475
