# .PCD v0.7 - Point Cloud Data file format
VERSION 0.7
FIELDS x y z
SIZE 4 4 4
TYPE F F F
COUNT 1 1 1
WIDTH 704
HEIGHT 1
VIEWPOINT 0 0 0 1 0 0 0
POINTS 704
DATA ascii
-0.15317047 0.38857383 -0.07475923
-0.15566432 0.39123869 -0.046074752
-0.15589082 0.39238903 -0.026305826
-0.15495229 0.39300692 -0.0064732879
-0.15331876 0.38513821 -0.096837431
-0.15725833 0.39279342 0.013346612
-0.15361488 0.39217514 0.033606634
-0.15324569 0.38170069 -0.11681835
-0.15795296 0.39056116 0.053475007
-0.15379608 0.37581903 -0.14360942
-0.165043 0.38288158 -0.11118247
-0.17264599 0.38836479 -0.075840436
-0.17533362 0.39123708 -0.045662034
-0.1755206 0.39234567 -0.026356451
-0.17463779 0.39294857 -0.0069893524
-0.15662795 0.38865873 0.073994711
-0.17657661 0.39271584 0.014543034
-0.17313743 0.39211133 0.034343317
-0.15348268 0.38577425 0.092895597
-0.1533556 0.36963612 -0.1663518
-0.17307407 0.37876654 -0.12999658
-0.15413076 0.3823854 0.11383039
-0.17259854 0.37538284 -0.14541447
-0.19342071 0.3928929 -0.0074817501
-0.18210512 0.39053035 0.053273179
-0.17605025 0.38863543 0.073816456
-0.15371174 0.36111173 -0.19392532
-0.19278926 0.38588369 -0.091514654
-0.19538647 0.39270633 0.013549224
-0.1533438 0.37815729 0.133104
-0.1731413 0.36989468 -0.16529706
-0.19287956 0.38253573 -0.11263476
-0.20266438 0.39065704 -0.051302455
-0.20348591 0.39215899 -0.030577073
-0.19675714 0.39211771 0.0325296
-0.17718601 0.38556594 0.093929201
-0.15361881 0.35531163 -0.21034971
-0.19321162 0.37974182 -0.12536046
-0.20597059 0.38931525 -0.065655477
-0.17402983 0.3825995 0.11267327
-0.17309088 0.36405247 -0.18548243
-0.20032299 0.39046535 0.05356168
-0.15562522 0.37305769 0.15448004
-0.1934976 0.37392455 -0.15102273
-0.21589935 0.39066488 -0.050920717
-0.21667457 0.39213338 -0.030541932
-0.21589768 0.39270169 -0.012159906
-0.21286482 0.38416663 -0.10227956
-0.21671051 0.39250481 0.018605985
-0.20512426 0.38911545 0.068004549
-0.19579637 0.38562623 0.093298599
-0.17722118 0.37812006 0.13305256
-0.16771811 0.35228023 -0.2188454
-0.19265914 0.36768034 -0.17291269
-0.21305072 0.38114125 -0.11879382
-0.16306806 0.37002039 0.16507816
-0.21852928 0.39048284 0.047547437
-0.19665641 0.38244468 0.11317256
-0.19304359 0.3622514 -0.19046326
-0.21307617 0.37519091 -0.14589529
-0.15380925 0.36158919 0.19271915
-0.21536887 0.38639462 0.088098019
-0.18495184 0.3735472 0.15255463
-0.19314003 0.35672784 -0.20609894
-0.21270216 0.36929017 -0.16712235
-0.17594743 0.36740771 0.17414726
-0.21556967 0.38303185 0.10973077
-0.20342231 0.37774527 0.13451926
-0.21270436 0.36364558 -0.18639807
-0.1727131 0.36162701 0.19250068
-0.16298705 0.35700125 0.2056575
-0.21855468 0.3705616 -0.071138903
-0.21855491 0.37153912 -0.052456327
-0.21856022 0.37030706 -0.031582296
-0.21856141 0.37871003 0.12911566
-0.20567864 0.37289554 0.15469274
-0.2082082 0.3524242 -0.21818404
-0.21856606 0.3711437 0.029128283
-0.2185663 0.37212768 0.047955297
-0.18521327 0.36109367 0.19393735
-0.21856934 0.36017242 -0.13591799
-0.21857071 0.36672726 -0.010427471
-0.21857166 0.37088934 0.069253713
-0.21857607 0.36536127 0.0086415187
-0.20751673 0.36765653 0.17304593
-0.21858013 0.35641322 -0.117355
-0.21858233 0.36717927 0.088992566
-0.18368626 0.3537482 0.2147491
-0.2185843 0.35149971 -0.16587543
-0.21858543 0.35512209 -0.096411251
-0.21859503 0.35130242 -0.077473208
-0.21859527 0.35240635 -0.056278013
-0.21859837 0.36148146 0.11794652
-0.2185989 0.34247473 -0.20052332
-0.21860033 0.35098141 -0.03709973
-0.21448338 0.3606323 0.19507241
-0.21860588 0.35165799 0.022745237
-0.20474726 0.35343158 0.21552306
-0.21860957 0.34088668 -0.13727616
-0.21861064 0.34721673 -0.015525695
-0.21861112 0.35033321 0.044417441
-0.2186113 0.351336 0.063703969
-0.21861589 0.34576446 0.0039353222
-0.21861899 0.33170906 -0.21901949
-0.21862 0.33704972 -0.11617759
-0.21862173 0.34743634 0.083834022
-0.21862245 0.35135874 0.15936653
-0.21862459 0.33165616 -0.17218423
-0.21862525 0.33556169 -0.096931487
-0.2186271 0.34597516 0.103716
-0.21863258 0.34529325 0.13890684
-0.21863288 0.3473208 0.17799757
-0.21863586 0.3316614 -0.075421877
-0.21863765 0.34201145 0.12424633
-0.21863854 0.34686679 0.21791151
-0.21864128 0.33014464 -0.055888809
-0.2186414 0.33115745 -0.036337525
-0.21864516 0.32006341 -0.20148745
-0.21864724 0.33166674 0.022631109
-0.218651 0.32064742 -0.14087269
-0.21865213 0.32708395 -0.016474176
-0.21865273 0.33013982 0.042586632
-0.2186529 0.33127272 0.064483106
-0.21865761 0.32553989 0.003409449
-0.21865952 0.33565646 0.19905327
-0.21866083 0.31151846 -0.217859
-0.21866179 0.31649673 -0.12152514
-0.21866375 0.32705849 0.082856059
-0.21866441 0.33070517 0.15342258
-0.21866673 0.31128344 -0.17218405
-0.21866739 0.31491455 -0.1018731
-0.2186693 0.32550395 0.10317214
-0.21867543 0.32657427 0.17464925
-0.21867841 0.31069434 -0.082130291
-0.21867859 0.31172162 -0.062213749
-0.21867919 0.31480649 -0.0024046004
-0.21868044 0.32133418 0.12415309
-0.21868128 0.32615727 0.21766245
-0.21868271 0.30188525 -0.20177907
-0.21868426 0.31011063 -0.042204294
-0.21868879 0.30230156 -0.14220691
-0.2186904 0.31055686 0.018051177
-0.21869057 0.31159112 0.0381286
-0.21869117 0.31492716 0.10289115
-0.21869546 0.30582392 -0.021933686
-0.2186963 0.30996871 0.05858025
-0.21869761 0.31689525 0.19313054
-0.21869946 0.29497552 -0.18055338
-0.21870279 0.31215331 0.15334842
-0.21870434 0.2903069 -0.21888226
-0.21870565 0.29537088 -0.12038851
-0.21870762 0.30565169 0.079581723
-0.2187109 0.29057139 -0.16095909
-0.21871728 0.29187968 -0.08232566
-0.2187193 0.30221477 0.11896622
-0.2187199 0.30501068 0.17342067
-0.21872014 0.30711001 0.21431008
-0.21872318 0.29017615 -0.061987359
-0.21872336 0.29122168 -0.041610159
-0.21872747 0.28021061 -0.20244968
-0.21872842 0.28485525 -0.11186663
-0.21872967 0.29149207 0.017569691
-0.21873379 0.28055817 -0.14152488
-0.21873504 0.28673732 -0.02093247
-0.21873564 0.28977546 0.03835915
-0.21873587 0.29082817 0.058903657
-0.21873677 0.29492718 0.1388991
-0.21874106 0.28488487 -0.0024999268
-0.21874303 0.29497766 0.19460648
-0.2187441 0.27096602 -0.21953094
-0.21874774 0.2861926 0.078029968
-0.21874791 0.28725088 0.0987124
-0.21874851 0.29031134 0.15852164
-0.21875095 0.27058065 -0.17189752
-0.21875173 0.27468264 -0.091677591
-0.21876073 0.28741637 0.2131415
-0.21876383 0.27003688 -0.071016654
-0.21876401 0.27109814 -0.050232772
-0.21876413 0.27204198 -0.031749163
-0.2187658 0.27972683 0.11874725
-0.21876836 0.26055554 -0.20046555
-0.21877074 0.2717742 0.019389272
-0.21877134 0.27485526 0.079771131
-0.21877497 0.26071963 -0.14061235
-0.21877688 0.26984152 0.03827858
-0.21877712 0.27091038 0.059240162
-0.21877795 0.27495337 0.1385275
-0.21878248 0.26492268 -0.0010791682
-0.21878564 0.25095427 -0.21787904
-0.21878719 0.25581861 -0.12235403
-0.21878964 0.26701427 0.097518876
-0.21879029 0.27012178 0.15854841
-0.21879047 0.27119848 0.17969567
-0.21879274 0.25037137 -0.17159939
-0.21879989 0.2520518 -0.080391712
-0.21880203 0.26222822 0.11975661
-0.21880281 0.26619273 0.19773138
-0.21880293 0.26727521 0.21902364
-0.21880627 0.25003049 -0.061565541
-0.21880645 0.25110844 -0.040348433
-0.21881092 0.23996767 -0.200755
-0.21881187 0.24451727 -0.11114285
-0.21881336 0.25112036 0.018915534
-0.21881354 0.25208259 0.037868351
-0.21881413 0.25461063 0.087662205
-0.21881771 0.23993841 -0.14202808
-0.21881914 0.24606943 -0.021178748
-0.21882004 0.25016701 0.059590638
-0.21882355 0.23497537 -0.18018562
-0.21882737 0.25162914 0.14832674
-0.21882778 0.25466058 0.20812914
-0.2188288 0.22998697 -0.21853386
-0.21883386 0.2500625 0.17776524
-0.21883643 0.22979999 -0.1617458
-0.21883976 0.24446702 0.12801158
-0.21884376 0.2308237 -0.080562927
-0.218844 0.23179424 -0.061373927
-0.21884465 0.23483026 -0.0013489351
-0.21884596 0.24042851 0.10933265
-0.21884871 0.22164917 -0.20067021
-0.21885067 0.22966421 -0.042085409
-0.21885592 0.22155043 -0.14088026
-0.21885782 0.22959548 0.018421791
-0.218858 0.23057279 0.037774265
-0.21885824 0.23167288 0.059556976
-0.21886379 0.22450599 -0.020097984
-0.21886724 0.21132439 -0.21877168
-0.21886921 0.21620941 -0.1219039
-0.21886945 0.21731004 -0.10007633
-0.21887159 0.22638232 0.079847604
-0.21887231 0.22982565 0.14813825
-0.21887261 0.2314263 0.1798842
-0.21887517 0.21057424 -0.17066512
-0.2188828 0.2119067 -0.080715507
-0.21888512 0.22139499 0.10775597
-0.21888596 0.22597 0.1986365
-0.2188862 0.22696054 0.21831343
-0.21888971 0.20967233 -0.061141491
-0.21888995 0.21065876 -0.041531898
-0.21889472 0.19940433 -0.20097558
-0.21889538 0.20236138 -0.14214337
-0.21889591 0.20445859 -0.10041811
-0.21889746 0.210392 0.017629817
-0.21889764 0.21150643 0.039802641
-0.21889788 0.21249756 0.059522077
-0.21889871 0.2159704 0.12861666
-0.2189039 0.2061508 -0.0018528588
-0.21890587 0.21472591 0.16889505
-0.21890706 0.19197038 -0.21901833
-0.2189092 0.19692224 -0.12035418
-0.21891171 0.20686105 0.077706546
-0.21891248 0.21047598 0.14974611
-0.21891534 0.19101048 -0.17249233
-0.2189188 0.20457757 0.098093629
-0.21892339 0.19228455 -0.080873765
-0.21892416 0.19527757 -0.021130536
-0.21892589 0.20227864 0.11861795
-0.21892643 0.20578817 0.18867534
-0.21892732 0.20679253 0.20871395
-0.21893054 0.18994224 -0.060934179
-0.21893078 0.19094223 -0.040957682
-0.21893573 0.17958033 -0.20089146
-0.21893698 0.18457901 -0.1009468
-0.21893853 0.19059393 0.019317377
-0.21893883 0.19159818 0.039396606
-0.21894348 0.17918751 -0.14117005
-0.21894526 0.1862157 -0.00052738562
-0.21894598 0.1892353 0.059899643
-0.21894723 0.19465676 0.16839309
-0.21894842 0.17188579 -0.2192743
-0.21895069 0.17678043 -0.12126217
-0.21895337 0.18673018 0.078013442
-0.21895409 0.1902684 0.14888142
-0.21895713 0.17083248 -0.17186779
-0.2189607 0.18433458 0.098787844
-0.21896559 0.17191693 -0.081038035
-0.21896631 0.17495134 -0.020159256
-0.21896809 0.18192255 0.11970466
-0.21896875 0.18535355 0.18854424
-0.21896994 0.18637216 0.20896339
-0.21897167 0.16490439 -0.15219936
-0.21897292 0.16946012 -0.060718969
-0.21897316 0.17047393 -0.040361561
-0.21897829 0.15899825 -0.20080416
-0.21897918 0.16241789 -0.13207844
-0.21898121 0.1699107 0.018512268
-0.2189815 0.17092893 0.038975015
-0.2189818 0.1719476 0.059448272
-0.21898818 0.16538772 -0.0017151684
-0.21899039 0.17484227 0.18847679
-0.2189914 0.15102839 -0.21954013
-0.21899408 0.15637362 -0.11194553
-0.21899664 0.16582441 0.078332156
-0.2189973 0.1692836 0.14798351
-0.21900058 0.14987522 -0.17121911
-0.21900445 0.16472238 0.12797707
-0.21900493 0.16677886 0.16942143
-0.21900922 0.15076059 -0.081208669
-0.21900952 0.15178561 -0.060533252
-0.21901017 0.15422231 -0.01138627
-0.21901172 0.1601339 0.10785152
-0.21901363 0.16516036 0.20922264
-0.21901494 0.14125693 -0.20029812
-0.21901715 0.14908147 -0.042337
-0.21901804 0.15216845 0.019982964
-0.21902335 0.1405673 -0.14103487
-0.21902585 0.14945418 0.03853704
-0.21902609 0.15048707 0.059409201
-0.21903032 0.13497621 -0.18031643
-0.21903467 0.15125632 0.14895777
-0.21903622 0.15424335 0.2093561
-0.21903819 0.13219094 -0.16238785
-0.21903878 0.1342566 -0.12057008
-0.21903902 0.13516104 -0.10226104
-0.21904159 0.14409816 0.078663394
-0.2190426 0.149037 0.17865296
-0.21904379 0.12576503 -0.21768248
-0.21904695 0.13249409 -0.081355996
-0.21904945 0.14184737 0.10817325
-0.219055 0.12980825 -0.060302332
-0.21905518 0.13071823 -0.041844968
-0.21906054 0.11916769 -0.20019585
-0.21906155 0.12202609 -0.14216994
-0.21906215 0.12410742 -0.099916309
-0.21906388 0.12997293 0.019161787
-0.21906412 0.13088685 0.037716918
-0.21906441 0.13193196 0.058933288
-0.21906519 0.13533199 0.1279643
-0.21906674 0.11446714 -0.2191256
-0.21907109 0.12424809 -0.020399023
-0.21907139 0.12516326 -0.0018007942
-0.21907371 0.13460129 0.18999821
-0.21908104 0.12872666 0.14802849
-0.21908188 0.13215041 0.21767354
-0.21908468 0.10916507 -0.1721824
-0.21908873 0.1240052 0.12997234
-0.21908921 0.12585151 0.16756669
-0.21909231 0.10438591 -0.19122136
-0.21909392 0.10976762 -0.081539296
-0.21909428 0.11081946 -0.060102809
-0.21909457 0.11174035 -0.041336466
-0.21909511 0.11371493 -0.001093179
-0.21909654 0.11912209 0.10911188
-0.21910143 0.10391563 -0.1218678
-0.21910167 0.10496879 -0.10038102
-0.21910346 0.11077189 0.018003125
-0.21910375 0.1118288 0.039565161
-0.21910423 0.11381197 0.080025308
-0.21910918 0.099084735 -0.14088964
-0.21911091 0.10489565 -0.022226479
-0.21911204 0.10886747 0.0588824
-0.21911329 0.11430836 0.16999748
-0.21911514 0.091713667 -0.2113117
-0.21912122 0.10934305 0.14903972
-0.21912503 0.089993715 -0.16574773
-0.21912915 0.10434675 0.12795092
-0.2191298 0.10728329 0.18804331
-0.2191301 0.10875314 0.21812338
-0.21913284 0.0848068 -0.19052622
-0.21913457 0.090120077 -0.081697762
-0.21913493 0.091184437 -0.059896499
-0.21913517 0.092116177 -0.040810648
-0.21913576 0.094114423 0.00011830777
-0.21913719 0.099452674 0.1094671
-0.2191422 0.08424437 -0.11998388
-0.2191444 0.091049373 0.019545473
-0.21914458 0.091985226 0.03873457
-0.21914512 0.093992054 0.079885051
-0.21915019 0.079001129 -0.14480388
-0.21915317 0.088900268 0.058379591
-0.2191546 0.094271839 0.16863923
-0.21915644 0.071719706 -0.21095508
-0.21915829 0.074126124 -0.16153875
-0.21915936 0.077337503 -0.095555663
-0.2191627 0.089292467 0.15008578
-0.21916902 0.076870501 -0.021018168
-0.21917093 0.084146142 0.12863629
-0.21917164 0.08711803 0.1897672
-0.21917486 0.064549685 -0.18980697
-0.21917665 0.070061564 -0.076318219
-0.21917701 0.071004152 -0.056909852
-0.21917731 0.071947217 -0.037492082
-0.2191779 0.073699892 -0.0014054626
-0.21917927 0.079102159 0.10983464
-0.21918124 0.083977818 0.21021506
-0.21918452 0.063753903 -0.12081297
-0.21918488 0.064697683 -0.10135882
-0.21918666 0.070505559 0.018353213
-0.2191869 0.071452737 0.037875131
-0.21918744 0.073483646 0.079739913
-0.21919286 0.058624506 -0.14049464
-0.21919584 0.068237185 0.057859257
-0.21919721 0.073673546 0.17004214
-0.21919751 0.074626505 0.18970644
-0.21919847 0.050620139 -0.21896023
-0.21920121 0.05346179 -0.1603042
-0.21920562 0.068403482 0.14835155
-0.21921223 0.056008577 -0.020118706
-0.2192139 0.06227982 0.1095732
-0.21921813 0.043442369 -0.19187519
-0.2192201 0.048748493 -0.082031444
-0.21922034 0.049702406 -0.062283937
-0.21922076 0.050793171 -0.039703421
-0.21922404 0.063242793 0.21805027
-0.21922791 0.041584611 -0.14145929
-0.21922863 0.043494642 -0.10187365
-0.21923035 0.048825502 0.0086075999
-0.21923065 0.049783766 0.02846989
-0.21923089 0.050742507 0.048342042
-0.21923196 0.054582357 0.1279294
-0.21923465 0.034106493 -0.20688348
-0.21923912 0.043547451 -0.011028305
-0.21924007 0.047390819 0.068723246
-0.21924108 0.051241934 0.14863397
-0.21924359 0.053723812 0.20008846
-0.21924621 0.033842325 -0.12202327
-0.21924937 0.044013619 0.089260101
-0.21925056 0.048290312 0.17810306
-0.21925455 0.027386785 -0.16504544
-0.21925598 0.03137207 -0.082171589
-0.21925634 0.032335281 -0.06214181
-0.21925682 0.033849716 -0.030646179
-0.21925867 0.040610373 0.10995445
-0.21926308 0.021716833 -0.19115441
-0.21926647 0.031367719 0.0097683594
-0.21926683 0.032335401 0.029916227
-0.21926731 0.034272194 0.070242412
-0.21927327 0.019457519 -0.14558092
-0.21927619 0.028726518 0.047624379
-0.2192778 0.034281373 0.16341683
-0.2192784 0.036925375 0.21853566
-0.21928203 0.01371932 -0.17182094
-0.2192868 0.028569937 0.13809332
-0.21928859 0.0069715381 -0.21848561
-0.21929407 0.016967535 -0.0096961111
-0.21929556 0.02212292 0.09802343
-0.21929592 0.023099899 0.11843541
-0.21929675 0.026173413 0.18265514
-0.21929854 0.027154207 0.20310955
-0.21930152 0.0065745711 -0.13183799
-0.21930206 0.0082441568 -0.09691342
-0.21930248 0.0092188716 -0.076526687
-0.21930259 0.0097759962 -0.064872451
-0.21930873 -0.001360178 -0.20206764
-0.21931255 0.0065903664 -0.035588641
-0.2193132 0.0086876154 0.0083369687
-0.21931344 0.0096671581 0.028852075
-0.2193138 0.010647178 0.049377695
-0.21931702 -0.0066910982 -0.21716674
-0.21931958 -0.0050143003 -0.18206045
-0.21932018 -0.0033385754 -0.14692396
-0.21932238 0.0029584169 -0.014886467
-0.21932364 0.007027328 0.070435755
-0.21932453 0.010260522 0.1382346
-0.21932489 0.011667967 0.16774815
-0.21932721 0.013219595 0.20023733
-0.21932554 0.014062881 0.21797115
-0.21933025 -0.0070177317 -0.1266126
-0.21933043 -0.00645715 -0.11484449
-0.21933353 0.0032380819 0.088702351
-0.21933389 0.0046471953 0.11828798
-0.21934062 -0.0097418427 -0.085457683
-0.21934098 -0.0087573528 -0.064763844
-0.21934718 -0.019954264 -0.20103146
-0.21935177 -0.009947896 0.0095324144
-0.21935207 -0.0089586973 0.030352339
-0.21935236 -0.008110404 0.048206612
-0.21935558 -0.025571227 -0.21931937
-0.21935892 -0.022608578 -0.15695181
-0.21936101 -0.016816795 -0.034906931
-0.21936357 -0.0085937977 0.13838007
-0.21936417 -0.0066035986 0.18032046
-0.21936643 -0.0057474971 0.19830745
-0.21936834 -0.028540015 -0.18112664
-0.21936923 -0.026419044 -0.13637967
-0.21937239 -0.016632974 0.070103452
-0.21937954 -0.030260205 -0.11564264
-0.21937996 -0.029266715 -0.094654366
-0.21938044 -0.027846515 -0.064651988
-0.21938276 -0.020587444 0.088710994
-0.21938372 -0.017304599 0.15806732
-0.21938443 -0.014445662 0.21847486
-0.21938688 -0.039108396 -0.199964
-0.21938872 -0.037260771 -0.16091245
-0.21939123 -0.03014344 -0.010358904
-0.21939158 -0.029287517 0.0077456608
-0.21939188 -0.028288603 0.028878003
-0.21939218 -0.027146339 0.053042904
-0.21939307 -0.024430513 0.11049305
-0.219401 -0.036322057 -0.037369229
-0.21940351 -0.028448164 0.12941274
-0.21940428 -0.026151359 0.17806172
-0.21940643 -0.025143266 0.19936344
-0.21940553 -0.049832165 -0.21907808
-0.21940863 -0.047974467 -0.1797487
-0.21940947 -0.046118081 -0.14038135
-0.2194128 -0.036235452 0.069219388
-0.21942002 -0.050240993 -0.12238874
-0.21942043 -0.049237728 -0.10108456
-0.21942085 -0.048233986 -0.07976903
-0.21942109 -0.047373295 -0.061489537
-0.21942341 -0.040329218 0.088106424
-0.21942449 -0.037013888 0.15851805
-0.21942729 -0.059135497 -0.2049605
-0.21942973 -0.057125509 -0.16226573
-0.21943206 -0.050513506 -0.021662779
-0.21943241 -0.049505293 -0.00022329018
-0.21943271 -0.048640788 0.018162545
-0.21943301 -0.047631621 0.03962338
-0.21943414 -0.044311881 0.11021867
-0.21943563 -0.039249241 0.2178854
-0.21944219 -0.05642426 -0.039906878
-0.21944487 -0.048472226 0.12942737
-0.21944571 -0.046152472 0.17882288
-0.21944773 -0.045134425 0.20045178
-0.21944708 -0.06988436 -0.21826425
-0.21944988 -0.068296611 -0.18447489
-0.21945095 -0.066277325 -0.14142966
-0.21945429 -0.056876063 0.05903177
-0.21946204 -0.070401549 -0.12007372
-0.21946234 -0.06953305 -0.10153039
-0.21946269 -0.068519354 -0.079885617
-0.2194652 -0.061117351 0.078166492
-0.21946633 -0.057769537 0.14964952
-0.21947199 -0.077316046 -0.15746364
-0.21947372 -0.072817564 -0.06128132
-0.21947432 -0.070927978 -0.02087787
-0.21947467 -0.070055127 -0.0022163503
-0.21947497 -0.069036484 0.019566387
-0.21947527 -0.068162858 0.038246781
-0.21947628 -0.065247715 0.10057773
-0.2194804 -0.084570348 -0.20132539
-0.21948475 -0.077005506 -0.039403345
-0.21948731 -0.069558859 0.12004343
-0.21948838 -0.066776872 0.17960775
-0.21949053 -0.065895021 0.19843507
-0.21948987 -0.090564013 -0.21742497
-0.21949291 -0.088814497 -0.17998503
-0.21949399 -0.0869205 -0.13938627
-0.21949726 -0.077717304 0.057947233
-0.21949959 -0.07023412 0.21840876
-0.21950525 -0.091342509 -0.12082432
-0.21950555 -0.090465426 -0.1019902
-0.21950591 -0.089441597 -0.080005839
-0.21950853 -0.081965089 0.080531575
-0.2195096 -0.079171956 0.14050455
-0.21950978 -0.078289151 0.15946208
-0.21951342 -0.10019612 -0.19655976
-0.21951789 -0.091839373 -0.016909499
-0.2195183 -0.090810776 0.0052085221
-0.21951872 -0.089487553 0.033663899
-0.21951985 -0.086396098 0.10013855
-0.21952838 -0.099268377 -0.061064877
-0.2195313 -0.090864301 0.1199103
-0.21953511 -0.087606788 0.18997845
-0.21953362 -0.086721003 0.20911029
-0.21953785 -0.10910368 -0.15631947
-0.21953976 -0.10379958 -0.041933481
-0.21954143 -0.099367857 0.053638637
-0.21954519 -0.11737865 -0.21713339
-0.21954811 -0.1157546 -0.18213013
-0.2195496 -0.11354136 -0.13434984
-0.21955007 -0.11221272 -0.10565434
-0.21955037 -0.1113264 -0.086512551
-0.21955168 -0.10762894 -0.0066562928
-0.21955305 -0.10392416 0.073359624
-0.21955425 -0.1006577 0.14390604
-0.21955776 -0.12216008 -0.20174211
-0.21956342 -0.11223501 0.012872562
-0.21956491 -0.10807264 0.1029042
-0.21956593 -0.10524279 0.16411251
-0.21957344 -0.12149167 -0.067322493
-0.21957374 -0.12089729 -0.054447398
-0.21957409 -0.11985672 -0.031906016
-0.21957576 -0.11539042 0.064843982
-0.21957678 -0.11270547 0.12300637
-0.2195797 -0.10986429 0.18449089
-0.21957886 -0.10866982 0.21040818
-0.21958339 -0.13139874 -0.16089907
-0.21958429 -0.12901974 -0.10928679
-0.2195847 -0.12797797 -0.086685464
-0.21958673 -0.12246168 0.032991424
-0.21958768 -0.12007099 0.084854543
-0.21959251 -0.13883722 -0.20008016
-0.21959412 -0.13794219 -0.18067364
-0.21959543 -0.1361537 -0.14183287
-0.21959764 -0.13018268 -0.012091031
-0.21959811 -0.12913567 0.010657147
-0.21959949 -0.12524194 0.09526363
-0.21960038 -0.12299168 0.14415643
-0.21960282 -0.14528418 -0.21682991
-0.2196086 -0.13795763 -0.057488859
-0.21960878 -0.13735873 -0.044453427
-0.21961164 -0.13000506 0.11557621
-0.21961248 -0.12774807 0.16469291
-0.2196154 -0.12638897 0.19419077
-0.21961355 -0.12548792 0.21386972
-0.21961933 -0.14653677 -0.1195416
-0.21961963 -0.14563733 -0.099937394
-0.21962196 -0.13978022 0.027724549
-0.21962261 -0.13812476 0.063805535
-0.21962839 -0.15577519 -0.19510353
-0.21963054 -0.1542725 -0.16235206
-0.21963197 -0.15051645 -0.080356807
-0.21963298 -0.14795804 -0.024503831
-0.21963328 -0.14705414 -0.00477238
-0.21963495 -0.14298123 0.08413966
-0.21340674 -0.17011136 -0.17079641
-0.19914019 -0.19215226 -0.17079881
-0.184093 -0.21539927 -0.1708013
-0.21964735 -0.14788014 0.10465172
-0.21964765 -0.14697111 0.12452847
-0.21964812 -0.14606148 0.14441502
-0.21965861 -0.15616167 0.052208483
-0.21966064 -0.15099806 0.16529252
-0.21966338 -0.14962542 0.19527897
-0.17179203 -0.2472918 -0.17080441
-0.18073887 -0.21770597 0.17081758
-0.19016498 -0.20293266 0.17082042
-0.20810938 -0.17480892 0.17082731
-0.21967494 -0.18033749 -0.21711445
-0.17377818 -0.23514342 0.17081696
-0.21968937 -0.18531084 -0.19432974
-0.21970105 -0.1679076 0.18852544
-0.21969914 -0.16699088 0.20877838
-0.21970356 -0.19048166 -0.17469862
-0.20782316 -0.2093308 -0.17079988
-0.21971238 -0.19860637 -0.21894638
-0.17226475 -0.25750273 0.17081606
-0.20982075 -0.19692302 0.17082569
-0.18084013 -0.26577353 -0.17080557
-0.21973813 -0.18588221 0.1986897
-0.19828755 -0.24392074 -0.1708031
-0.21975267 -0.21626449 -0.19693662
-0.19984508 -0.2325241 0.17082001
-0.21976238 -0.19755661 0.21825799
-0.21976399 -0.2235415 -0.21803591
-0.17358339 -0.28274488 0.17081507
-0.19323486 -0.25011557 0.17081687
-0.21977824 -0.20525527 0.18834369
-0.21978045 -0.22824401 -0.18079185
-0.17171568 -0.30818444 -0.17080942
-0.18639976 -0.26830029 0.17081548
-0.21979022 -0.23641098 -0.21929695
-0.21979177 -0.23563457 -0.2020126
-0.21980321 -0.21881592 0.1731551
-0.21980214 -0.21678489 0.21855286
-0.17201972 -0.3065542 0.17081413
-0.20909792 -0.26560771 -0.17080227
-0.18506426 -0.29145098 0.1708146
-0.21983165 -0.23118955 0.18939137
-0.21983087 -0.25598162 -0.21772833
-0.21983504 -0.25410235 -0.17568496
-0.19552231 -0.2957505 -0.17080668
-0.21984434 -0.23856533 0.17285974
-0.21984303 -0.23667699 0.21531537
-0.21984613 -0.26188821 -0.20077901
-0.18111986 -0.32773077 -0.17081065
-0.17337638 -0.3333497 0.17081304
-0.21251023 -0.26496893 0.17082007
-0.21987319 -0.25128311 0.18930925
-0.18659335 -0.31752205 0.17081353
-0.21988553 -0.25725627 0.20840508
-0.21988666 -0.28294575 -0.21675946
-0.21988845 -0.2819972 -0.19536716
-0.17163312 -0.37404335 -0.17081481
-0.17175913 -0.35875154 0.17081195
-0.21160465 -0.2875753 0.17081779
-0.21991575 -0.27191746 0.18922487
-0.21991503 -0.29687226 -0.21806021
-0.21991968 -0.29496336 -0.17487939
-0.18521887 -0.34219229 0.17081258
-0.2050088 -0.30657995 0.1708145
-0.2199285 -0.27806962 0.20857859
-0.21993119 -0.30313325 -0.20065188
-0.19255328 -0.35145426 -0.17080978
-0.21994835 -0.30929303 -0.17944491
-0.21047199 -0.32622105 -0.17080458
-0.17749715 -0.38644373 -0.17081475
-0.2199595 -0.29311514 0.18913826
-0.21995914 -0.31807816 -0.21641006
-0.17315567 -0.38725209 0.17081082
-0.21997261 -0.29945374 0.20875689
-0.21997619 -0.32436651 -0.19508915
-0.21998948 -0.30762482 0.18784581
-0.18979502 -0.37210822 0.17081125
-0.22000474 -0.3397131 -0.21101701
-0.2200073 -0.33874369 -0.18882822
-0.20220059 -0.37146211 -0.17080843
-0.21257901 -0.3370856 0.17081355
-0.2199471 -0.34553337 -0.17080326
-0.2200352 -0.32981402 0.18773788
-0.22003329 -0.32884097 0.21025354
-0.22006625 -0.37011528 -0.21739963
-0.22006881 -0.36913633 -0.19479537
-0.20999622 -0.38762939 -0.17080735
-0.21454513 -0.36409032 0.17081153
-0.22008222 -0.35263145 0.18762687
-0.22007978 -0.35132432 0.21807593
-0.20768213 -0.38535476 0.17081049
-0.22011423 -0.36809623 0.19011182
-0.22011411 -0.39355505 -0.21948135
-0.2201165 -0.39273274 -0.20037563
-0.22012877 -0.37511706 0.21067533
